# .PCD v0.7 - Point Cloud Data file format
VERSION 0.7
FIELDS x y z intensity
SIZE 4 4 4 4
TYPE F F F F
COUNT 1 1 1 1
WIDTH 1124
HEIGHT 1
VIEWPOINT 0 0 0 1 0 0 0
POINTS 1124
DATA ascii
-10.730235 5.3480172 1.2297422 0
-10.773024 5.369679 1.1855941 1
-10.767087 5.377665 1.6139941 1
-10.73803 5.3690705 1.2555139 1
-10.75096 5.3608451 1.4704289 1
-10.780046 5.3600316 1.109604 0
-10.749802 5.3707318 1.5335671 5
-10.73107 5.3591738 1.7242938 0
-10.747652 5.3880897 1.8650268 0
-10.74122 5.38025 2.2965972 1
-10.745611 5.3823609 2.5176597 26
-10.775876 5.382184 1.234794 1
-10.788263 5.3902512 1.6601853 0
-10.735369 5.4027772 1.8664029 0
-10.805888 5.3959193 2.5263915 2
-10.729356 5.3807011 1.8393388 0
-10.744272 5.3893437 2.0563176 1
-10.730617 5.3838573 2.2712905 1
-10.736171 5.3864899 1.698306 1
-10.740768 5.3881278 1.9110768 2
-10.745009 5.3669653 1.4984723 1
-10.748382 5.3707299 1.7106291 1
-10.753798 5.3709216 1.9233868 1
-10.748416 5.3678255 2.3534143 4
-10.725388 5.3679338 1.6408339 1
-10.728715 5.364964 1.50055 1
-10.734838 5.3500457 1.1788578 1
-10.737676 5.3656654 2.0141799 1
-10.743203 5.3672662 1.5259469 1
-10.73677 5.3554034 1.7305702 1
-10.758142 5.3351812 1.1671084 1
-10.786701 5.3387284 1.5770338 1
-10.783079 5.3321567 1.7834238 0
-10.755625 5.3504076 2.1984355 1
-10.755994 5.3684549 1.2061654 1
-10.739884 5.3456182 1.3933719 2
-10.754988 5.3801255 1.592399 8
-10.765001 5.3838749 1.5490077 8
-10.75435 5.4016361 1.741724 1
-10.764403 5.3937297 1.9329604 0
-10.751311 5.3493719 1.20594 1
-10.727691 5.3625278 1.9101706 0
-10.869878 5.3437362 1.2061083 1
-10.851939 5.3264899 1.3744609 2
-10.858925 5.3591781 1.6393433 1
-10.790691 5.3783255 1.8958685 2
-10.737763 5.3581662 1.2030151 1
-10.729279 5.3799214 1.7117369 1
-10.731663 5.3819017 1.584746 1
-10.761572 5.3617201 1.5441129 5
-10.7722 5.3744678 1.232083 2
-10.771807 5.3873472 1.5828148 5
-10.771115 5.3755245 1.45131 3
-10.755886 5.3900266 1.6489937 3
-10.773436 5.3763599 1.8453401 4
-10.892034 5.2861757 1.8066666 2
-10.889571 5.2776685 1.1247194 1
-10.894773 5.469275 1.097672 1
-10.898824 5.4818563 1.3431607 0
-10.892723 5.3244538 2.1933942 2
-10.884543 5.4422035 1.1979632 0.5
-10.880502 5.4370356 1.3865623 1
-10.891212 5.459765 1.5138965 0
-10.903049 5.2911391 1.0935421 3
-10.893449 5.4378314 2.1141062 1
-10.854525 5.4837389 1.3286926 1
-10.880328 5.4682446 1.2406465 0
-10.875741 5.4592609 1.4349989 1
-10.886004 5.4101892 1.0910673 1
-10.891743 5.4781151 1.2924263 0
-10.889011 5.4719696 1.6893659 0
-10.884257 5.4703617 2.0978918 0.5
-10.856755 5.2887301 1.1189767 4
-10.870171 5.4115105 2.7224014 11
-10.8547 5.4353962 1.5648249 1
-10.821571 5.3847218 2.1746376 2
-10.796532 5.3506203 2.4881947 11
-10.875988 5.3849301 1.5182815 2
-10.891268 5.4746561 1.7511189 1
-10.866442 5.3889575 1.983006 3
-10.865881 5.4344172 1.2830768 2
-10.861727 5.4400373 1.6719267 2
-10.816391 5.2919407 1.10603 2
-10.802256 5.3160396 1.4145905 1
-10.797588 5.328279 1.7263488 1
-10.799826 5.428926 1.20313 4
-10.813646 5.43823 1.3601629 4
-10.819365 5.45783 1.5194416 3
-10.766403 5.4317198 2.3411112 3
-10.754682 5.310523 2.749104 7
-10.882696 5.3547354 1.3208586 4
-10.862223 5.3261738 1.4919819 3
-10.84116 5.3699894 2.524673 11
-10.878363 5.4601393 1.3017931 2.5
-10.898441 5.4424019 1.5520294 1
-10.854015 5.3911853 1.730135 4
-10.87491 5.4376559 1.1863097 3
-10.887697 5.4553523 1.6145235 4
-10.82978 5.4001517 1.9730517 4
-10.800577 5.4441104 1.1846583 5
-10.798278 5.4614053 1.7100877 4
-10.789986 5.4603157 1.8888589 4
-10.872337 5.2981806 2.3997612 4
-10.823633 5.4166369 1.7703595 4
-10.806696 5.4167032 1.9529271 3
-10.777224 5.4123945 2.3219988 2
-10.770243 5.4023786 2.5067949 2
-10.832937 5.4173265 1.3164136 3
-10.843471 5.4597931 1.7713944 1
-10.797255 5.3544459 1.9631793 4
-10.825071 5.3880801 1.1641331 5
-10.833416 5.4064879 1.3485557 5
-10.796747 5.4034719 2.2992833 2
-10.792104 5.3003159 2.488626 1
-10.821277 5.4078965 1.7448213 3
-10.778955 5.4081469 2.3334072 1
-10.860755 5.2931242 1.8284364 2
-10.862997 5.4705915 2.6119938 6
-10.861458 5.3584533 1.3001589 5
-10.877616 5.3838692 1.8856704 3
-10.888744 5.4403548 2.6812325 1
-10.898315 5.2706184 1.1641694 2
-10.829637 5.3342152 1.3196791 1
-10.854741 5.3611975 2.562788 2
-10.822665 5.4556465 1.1896715 5
-10.821085 5.4625397 1.6112052 4
-10.831486 5.3931675 1.3360903 3
-10.850992 5.4212399 1.7629663 4
-10.797575 5.3867469 1.9869467 2
-10.857121 5.367918 1.9031763 3
-10.868608 5.450489 2.5681591 1
-10.8361 5.3968759 1.3638167 1
-10.791316 5.419961 2.0281644 0
-10.742394 5.3536654 2.7258255 4
-10.847345 5.419147 1.2562814 2
-10.779893 5.407887 2.6409943 2
-10.776999 5.3815556 1.0829298 3
-10.851789 5.4539948 2.2365692 4
-10.752043 5.306942 2.4968219 0
-10.787303 5.3447199 1.0976694 4
-10.865387 5.2827435 1.3295333 2
-10.825336 5.37711 2.0396025 2
-10.788082 5.3308978 2.5309589 1
-10.814864 5.475728 1.3093913 2
-10.785791 5.3224087 1.806239 2
-10.769646 5.4532242 2.5286617 2
-10.854545 5.4681611 1.1770309 5
-10.793107 5.45333 2.1630929 1
-10.781799 5.3320513 2.6626515 10
-10.888985 5.2744737 1.2413647 5
-10.857361 5.3005166 1.9781147 3
-10.8832 5.4032831 1.3334296 2
-10.792503 5.3657923 2.5953128 4
-10.803098 5.3201394 1.5853696 1
-10.789684 5.3768349 2.3474486 1
-10.875683 5.2910709 1.7332754 0
-10.87582 5.2967935 1.9924895 1
-10.87369 5.316412 2.7798305 0
-10.835378 5.3404732 1.1412697 0
-10.739691 5.4136696 1.1274068 255
-10.878065 5.3357124 1.7808461 6
-10.841505 5.3722649 1.5895069 3
-10.872931 5.444088 2.3216093 4
-10.882221 5.3636131 2.2350454 1
-10.774782 5.4124718 2.2217066 3
-10.815617 5.3448067 1.7836881 4
-10.751028 5.3783326 1.137253 1
-10.773523 5.3668098 1.3788499 2
-10.749826 5.3829861 1.5953346 4
-10.769444 5.3751411 1.7377398 2
-10.749159 5.3736124 1.2665489 3
-10.7335 5.3919201 1.6038753 3
-10.747682 5.4576206 1.1216224 0
-10.750151 5.4268761 1.2923006 1
-10.778257 5.3799953 1.5162069 1
-10.898041 5.3560042 1.1050274 2
-10.861262 5.3319774 1.2625422 2
-10.842293 5.3077207 2.2181144 2
-10.890944 5.3404474 2.2092285 1
-10.877555 5.4408998 2.6285362 14
-10.78228 5.3874474 2.5552847 2
-10.802013 5.3244624 2.5830073 23
-10.749963 5.4417868 2.5997221 12
-10.762656 5.3294077 2.7248728 4
-10.81234 5.3038721 2.6211104 12
-10.853686 5.4352002 1.2918552 3
-10.860342 5.4497504 1.7920798 1.5
-10.871794 5.4694743 2.0093176 2
-10.728138 5.3461294 2.6319041 3
-10.799365 5.3182406 2.6472812 2
-10.826893 5.4530735 1.2233829 5
-10.796207 5.43188 1.531003 4
-10.874644 5.2831249 1.661286 2
-10.888144 5.3492303 1.5776026 10
-10.891578 5.343246 2.5338156 9
-10.893978 5.4115496 1.3093824 3
-10.867522 5.3315811 1.6355793 1
-10.886422 5.3319554 1.9576724 4
-10.873129 5.440238 1.3489113 5
-10.880116 5.4580488 1.685776 2
-10.742723 5.3770404 2.5789921 8
-10.88432 5.3721981 1.2417122 4
-10.826419 5.3712125 2.3043733 1
-10.889765 5.4735827 2.471338 1
-10.734178 5.3202572 2.5050812 15
-10.750237 5.4042511 2.5389326 2
-10.817417 5.429863 1.6011822 2
-10.857084 5.4700418 1.7777698 4
-10.808125 5.3909969 1.1878355 1
-10.893122 5.4570222 1.3694042 3
-10.828958 5.413034 1.9935216 1
-10.778889 5.3974547 2.6225452 8
-10.895041 5.406352 2.2419734 0
-10.823242 5.3479595 2.4655714 0
-10.856036 5.4014921 2.7273633 0
-10.884909 5.3073273 2.6569099 30
-10.85326 5.4561539 2.3958757 6
-10.817858 5.3230629 2.5207639 16
-10.833816 5.4014664 2.3608375 6
-10.832844 5.324501 2.4513848 44
-10.769331 5.3620186 2.4904461 22
-10.750402 5.451931 2.7753539 6
-10.751251 5.4780912 1.6302447 14
-10.805162 5.2706728 1.126793 4
-10.886881 5.304863 1.6745617 2
-10.803389 5.305685 2.7451704 13
-10.840586 5.4299812 2.2390163 2
-10.724635 5.334837 1.1300997 1
-10.733579 5.4315844 1.5366571 1
-10.745533 5.2748041 1.3490076 3
-10.757951 5.3610563 1.1609489 1
-10.865696 5.4106936 2.7992237 1
-10.792402 5.4411931 1.5618432 1
-10.729372 5.3909502 1.9296674 1
-10.760959 5.4426823 1.5184816 1
-10.797044 5.4374447 1.495334 1
-10.855461 5.4194527 2.4860132 255
-10.785119 5.4577179 2.6114569 7
-10.768015 5.4007931 1.8052083 2
-10.786472 5.4310722 1.409677 1
-10.769291 5.4669304 2.7926939 1
-10.770237 5.3777075 1.5703655 1
-10.73452 5.3884697 1.8365127 1
-10.743477 5.4051228 2.3820515 1
-10.831725 5.4393187 1.4561954 1
-10.727798 5.3675995 1.2595063 3
-10.806904 5.4450636 1.5279448 1
-10.764784 5.4166398 1.4943408 0
-10.779478 5.3596687 2.5167277 47
-10.814097 5.4062257 1.1121349 0
-10.775516 5.4503908 1.6150794 1
-10.802613 5.4505801 1.8710861 1
-10.809857 5.4498639 1.2481482 1
-10.727917 5.4827795 1.493166 2
-10.78366 5.4157705 1.4938287 0
-10.746101 5.4570484 1.7452626 1
-10.782387 5.4631028 1.4400911 1
-10.81603 5.4513993 1.6847585 1
-10.764055 5.3886805 1.2870622 2
-10.839747 5.2820468 1.3203694 4
-10.785966 5.4439144 1.4605948 1
-10.747481 5.3882866 1.2318492 0
-10.803486 5.417738 1.2001973 0
-10.77452 5.4063621 1.1091336 0
-10.811015 5.4439883 1.1085881 0
-10.760587 5.4110842 1.2398896 0
-10.90379 5.28545 1.3197967 3
-10.88463 5.2853827 1.3077022 4
-10.87252 5.2771831 1.301855 6
-10.885358 5.2895055 1.3276201 4
-10.786965 5.4332285 1.158074 0
-10.773663 5.4469047 1.4162678 0
-10.808057 5.4388804 1.2081411 0
-10.754744 5.4637666 1.5583967 1
-10.775355 5.4478836 1.3349078 0
-10.756429 5.4558268 1.5931269 1
-10.742897 5.4259486 1.2939324 2
-10.773732 5.4605856 1.557977 0
-10.865873 5.2813416 1.2995543 7
-10.767414 5.4279699 1.6035091 1
-10.775267 5.4526091 1.6580486 1
-10.779824 5.4467511 1.5411843 1
-10.809764 5.4327955 1.1898539 0
-10.736496 5.4628391 1.4542251 1
-10.798482 5.4509368 1.5602986 1
-10.826528 5.3000717 1.3045862 6
-10.768465 5.4721251 1.6109358 0
-10.859481 5.3000679 1.6726775 4
-10.785043 5.4346633 1.2699585 1
-10.903349 5.3043685 1.7360977 14
-10.749656 5.3886395 1.1998432 0
-10.786163 5.4446487 1.7222905 0
-10.760243 5.4232302 1.2748106 2
-10.765659 5.4483371 1.5327499 0
-10.884556 5.30547 1.7452074 12
-10.793288 5.4374409 1.5813705 1
-10.791306 5.4418688 1.5721362 1
-10.77707 5.4520645 1.6808661 1
-10.761835 5.4660578 1.9408807 1
-10.799109 5.4411335 1.2109832 0
-10.879509 5.293179 1.6717871 3
-10.761641 5.4346943 1.972128 0
-10.771105 5.4141679 1.2336713 0
-10.73647 5.4637818 1.5010884 1
-10.765181 5.4545703 1.7500392 0
-10.782011 5.4402628 1.707101 0
-10.783652 5.4248972 1.599582 0
-10.762061 5.4518833 1.3825063 0
-10.738745 5.4588299 1.6370807 0
-10.773143 5.4426503 1.1906564 1
-10.768971 5.4335699 1.6935116 1
-10.784031 5.4470539 1.1969659 0
-10.741783 5.4648581 1.7085576 0
-10.789829 5.433949 1.1923298 0
-10.764557 5.4633384 1.7062126 1
-10.755909 5.4429717 1.1559806 1
-10.772491 5.4490895 1.6613348 1
-10.776722 5.4416504 1.644624 1
-10.765074 5.4579115 1.9051908 1
-10.763428 5.4598942 1.6717341 0
-10.739157 5.4245043 1.9165163 1
-10.731436 5.4655623 1.7226037 1
-10.796192 5.4371681 1.2192936 0
-10.886702 5.2946019 1.6819069 3
-10.786849 5.4295187 1.2268478 0
-10.76948 5.4400167 1.4838057 6
-10.758656 5.4536352 1.7407196 0
-10.742702 5.4656458 2.0008667 0
-10.778957 5.4548273 1.6578975 1
-10.753663 5.462574 1.916256 1
-10.797832 5.4447389 1.2232176 0
-10.768672 5.4520192 1.4771532 7
-10.752171 5.4668126 1.7361575 0
-10.764432 5.4461384 1.5418769 0
-10.73918 5.4573078 1.6733354 0
-10.786184 5.4568176 1.9289635 1
-10.893196 5.3932619 2.545723 87
-10.728971 5.302742 1.3327341 3.2936511
-10.823633 5.3241887 2.744683 13.75
-10.822003 5.4095001 2.5083826 3
-10.765822 5.3032141 2.7096403 26
-10.765468 5.4059987 2.7193592 0
-10.771386 5.3711686 2.7856803 5
-10.861949 5.377758 2.5829577 98
-10.813078 5.3098979 2.1212044 4
-10.788663 5.3466311 1.1150835 3.5555561
-10.805274 5.309319 1.1368191 4.625
-10.729618 5.3312278 1.3301904 3
-10.755328 5.3625026 1.3203691 2.4555559
-10.764256 5.3142209 1.6993817 3.866667
-10.859776 5.4508986 1.1450433 0.33333299
-10.889222 5.4352255 1.2182058 1
-10.884232 5.4271083 1.5854372 1
-10.872007 5.4471927 1.9672196 1
-10.874479 5.4739833 2.3622656 0.66666698
-10.878395 5.3833036 1.2562447 1
-10.878857 5.4424419 1.6416306 1.666667
-10.866226 5.4283705 2.0321722 1
-10.907539 5.4656572 1.1640756 1
-10.900288 5.470912 1.5403012 1
-10.856131 5.2810397 1.739476 3.4444439
-10.859084 5.2969499 2.137346 2.704762
-10.77299 5.2809353 1.0757995 117.84603
-10.793022 5.294343 1.4612325 3.8823719
-10.801754 5.340394 1.8597178 2.5958331
-10.79651 5.3462496 2.2676911 2.9875
-10.852357 5.3158226 2.6607218 10.188889
-10.742022 5.3235826 2.6941285 8.6388884
-10.839505 5.2829399 1.2980794 3.9714291
-10.832111 5.34692 2.5510345 4.2009258
-10.801481 5.3126335 1.1923603 4.0817461
-10.786355 5.3328009 1.6039557 3.0166669
-10.803247 5.3687267 2.0215108 2.458333
-10.814823 5.4043045 2.4539509 3.5555561
-10.794824 5.31322 1.2636759 3.7268519
-10.820295 5.3250117 1.6740835 2.3888891
-10.804924 5.4581475 1.3830066 2.083333
-10.800001 5.4569116 1.8167413 1.972222
-10.796276 5.4709325 2.187789 1.675
-10.774174 5.4477868 2.4902592 3.8125
-10.854534 5.36868 1.2425487 2.6111109
-10.862776 5.3562603 1.6719575 2.1111109
-10.810884 5.3572721 2.1210399 2.3888891
-10.812418 5.4160643 2.4292779 5.0740738
-10.830163 5.3326063 1.1236883 3.2321429
-10.849563 5.3768563 1.5634015 1.911111
-10.833627 5.4087629 1.9453176 5.875
-10.826344 5.4117703 2.3324564 3.2
-10.736187 5.3236637 2.499984 10.75
-10.84937 5.3308153 2.6285756 9
-10.876499 5.2901063 1.2140019 2.9948051
-10.889649 5.3036799 1.6648812 2.2777779
-10.786077 5.2892895 2.0680566 3.568182
-10.831553 5.3455644 2.4583247 3.8981481
-10.814677 5.3259606 1.1365776 87.583336
-10.814377 5.3239865 1.597017 3.320513
-10.858273 5.4277139 1.9066803 1.487179
-10.833584 5.3860407 2.3866844 2.3203461
-10.851527 5.3539724 2.7834675 7.0982141
-10.777107 5.3758707 1.419412 3.2507939
-10.754128 5.4758697 1.7409837 3.2103181
-10.773058 5.3948951 2.2095592 2.677249
-10.832382 5.4826975 1.1987799 2.272222
-10.828991 5.4731846 1.5987471 1.7
-10.786522 5.4476886 2.1732035 3
-10.78208 5.4744124 2.4256001 2.5625
-10.867373 5.3587704 2.6442537 12
-10.860487 5.426856 1.0887687 2.5
-10.826038 5.4160824 1.1759644 3.7333331
-10.8456 5.4767075 1.5816015 1.5
-10.842789 5.4534969 1.9976382 1.9444439
-10.80891 5.4437733 2.427799 4.311111
-10.841127 5.4270449 2.7635627 3.871428
-10.90814 5.3731546 1.3994105 1.925
-10.902438 5.3982134 1.82133 1.904762
-10.884481 5.3782206 2.2522321 2.833333
-10.888496 5.3750687 2.5998554 5.9285722
-10.880587 5.4321194 1.3864135 2.0666671
-10.885033 5.4745898 1.8103769 1.325
-10.84269 5.3983498 2.1623602 3.5
-10.867595 5.4457889 1.2734253 2.666667
-10.865382 5.4549737 1.7054476 2.9000001
-10.872238 5.4601989 2.054693 3.583333
-10.869555 5.4666605 2.4991384 3.1111109
-10.856878 5.2982531 2.4911978 2.311111
-10.798647 5.3246264 1.7988364 3.375
-10.806366 5.3435955 2.1510329 3.8263891
-10.7915 5.3540874 2.602644 11
-10.84116 5.4110751 1.1465094 2.75
-10.831716 5.451025 1.5911121 4.3000002
-10.832754 5.4499297 2.039345 1.9
-10.836646 5.4577155 2.7724037 3.3375001
-10.8297 5.3940873 1.2266669 2.666667
-10.832168 5.4047685 1.6809819 2.083333
-10.832475 5.4372306 2.0514579 1.9
-10.833132 5.4411597 2.4248531 1.3
-10.899351 5.3885159 1.3391169 2.666667
-10.889252 5.3794641 1.8047532 2.5
-10.903282 5.4137635 2.1776094 2.375
-10.861481 5.3541436 2.2815275 3
-10.887596 5.4433193 2.5620837 1.5
-10.85551 5.4527011 1.4375439 2.1500001
-10.857037 5.4754615 1.9077511 1.894444
-10.843836 5.3300648 2.7665074 6.666667
-10.848381 5.4482989 1.4532554 8.458334
-10.793812 5.4001632 1.5585518 2
-10.848251 5.4788303 2.02791 2.166667
-10.822742 5.3615632 1.3533897 3.3809519
-10.828266 5.3668318 1.7368653 3.1142859
-10.786139 5.3229365 2.2301042 4.2363639
-10.806159 5.3819547 2.6222129 7.34127
-10.856346 5.3215961 1.3999708 2.462121
-10.856468 5.3101068 1.7911663 2.666667
-10.886015 5.3321133 2.1797876 2.428571
-10.887676 5.3839045 2.5790143 4.0625
-10.775278 5.3051424 2.7009723 5.5999999
-10.894561 5.3180742 2.1615353 0
-10.854661 5.3728695 1.2946446 0
-10.885206 5.4083529 1.5926466 0
-10.846211 5.3471041 1.5965981 0
-10.832641 5.4131336 1.8347455 0.375
-10.790353 5.4331894 1.1943095 3
-10.828566 5.3955951 2.7882602 8.333333
-10.843888 5.4524889 1.2266717 1.9666671
-10.845472 5.4412975 1.6560675 25.766666
-10.849941 5.4727941 2.0893083 2.4749999
-10.846883 5.4426131 2.5272403 2.5999999
-10.880841 5.4534974 1.2401167 1
-10.837585 5.3556542 1.3593504 2.25
-10.843859 5.3987722 1.7946014 0.875
-10.835125 5.3736882 2.2390814 1.675
-10.826166 5.367424 2.6883202 2.5
-10.844589 5.4075513 1.4728355 0.2
-10.846413 5.4040971 1.9166181 0.69999999
-10.84208 5.4324894 2.3660824 0.91071397
-10.735011 5.3672786 2.5011654 0.5
-10.858815 5.3287039 1.2359829 1.25
-10.856119 5.3807502 1.6806052 0.69999999
-10.879576 5.3534522 2.1285095 1.566667
-10.890122 5.3648958 2.4675145 1.333333
-10.832653 5.366632 2.4787843 2.4000001
-10.863167 5.2912087 1.7147963 2
-10.80862 5.4366198 2.6340067 18
-10.861542 5.2997103 1.8895848 3.416667
-10.775101 5.3156834 1.9025019 3.125
-10.840734 5.3776655 2.5964103 9.3249998
-10.871636 5.4276633 1.1982014 3.375
-10.877488 5.4210925 1.671005 3
-10.853795 5.3557611 2.3966496 2.416667
-10.824698 5.299099 1.2044048 4.416667
-10.872882 5.3391685 1.5524193 2
-10.864179 5.3670301 1.9109802 2.625
-10.748393 5.4170923 1.9267141 2.5
-10.879049 5.4022322 2.38831 2.5
-10.897188 5.4734392 2.7482328 13
-10.884717 5.4441996 2.751862 9.5
-10.872578 5.363863 1.3053007 2.7
-10.748044 5.3383241 1.3210236 3.375
-10.881703 5.3556967 1.6668634 3.333333
-10.820379 5.3780284 1.6734775 3.666667
-10.797275 5.4138308 2.0415237 4.1999998
-10.79788 5.4191875 1.4855785 2
-10.815308 5.4739547 2.0999765 2.25
-10.849595 5.3851323 1.0929322 4.1999998
-10.770027 5.4464941 1.4667261 3.270833
-10.771051 5.3391652 1.0791485 1
-10.867846 5.3926506 1.1863885 3.625
-10.875805 5.4586082 1.5577536 2
-10.833306 5.392333 1.698947 2.25
-10.81063 5.3968525 2.0852773 2.1428571
-10.845721 5.428977 2.459837 4.7666669
-10.892596 5.2693729 1.0862372 1.5
-10.880732 5.285193 1.4738942 1
-10.866302 5.3082309 2.2544286 0
-10.857291 5.3512497 1.1404812 0
-10.83371 5.4058733 2.1484745 2
-10.872627 5.4076805 2.541708 4
-10.846912 5.3212852 2.5892313 6
-10.828743 5.4286766 2.1215873 2
-10.792259 5.3200836 2.1462767 3
-10.863037 5.3300438 2.0986536 5
-10.865005 5.4512329 2.4241509 10
-10.860718 5.3703003 1.4179027 5
-10.825382 5.2856979 1.3259184 7
-10.900734 5.3815536 1.7735436 4
-10.875996 5.3491859 2.0000579 6
-10.866119 5.3633041 1.6135366 3
-10.895813 5.3380508 2.7533798 5
-10.865135 5.2773132 1.3142574 3.5
-10.837364 5.3529053 2.5753484 4
-10.882885 5.2825203 1.3802536 6
-10.849243 5.3603363 2.3568807 5
-10.838875 5.351387 1.6216671 7
-10.88649 5.314167 1.913258 3
-10.84203 5.3664017 1.6603062 6
-10.82954 5.3023415 1.2732893 3
-10.844154 5.3658257 2.442497 4
-10.877098 5.3303604 2.0657902 2
-10.857521 5.3953133 2.3599086 6
-10.786091 5.3397789 1.9930952 9
-10.787548 5.3612022 1.9330051 6
-10.886288 5.3993263 2.2860441 20
-10.839752 5.3544388 2.3955374 53
-10.810726 5.3467216 2.4050667 52
-10.898277 5.4062538 2.3675399 44
-10.863773 5.3406296 1.9183103 4
-10.896332 5.3286285 2.6128793 3
-10.783981 5.2995453 1.2331338 3
-10.893509 5.3800278 1.2787977 5
-10.887222 5.4761009 2.3255045 5
-10.798862 5.3435783 2.364635 28
-10.892132 5.4317284 2.235487 5
-10.877943 5.4059372 1.0924368 16.5
-10.83691 5.3522491 1.8663256 2
-10.881289 5.3591919 1.1949643 5
-10.817324 5.297123 1.6970789 3
-10.777409 5.3284874 1.3129253 4
-10.72916 5.3144608 1.6443169 4
-10.809755 5.3006554 2.7145705 16.5
-10.901766 5.3358994 1.3934572 5
-10.808529 5.2923126 1.9495733 7
-10.883835 5.4333153 2.5297375 22
-10.788914 5.3093376 2.4323301 13
-10.901878 5.3878136 1.9425883 7
-10.813452 5.2916603 1.9861426 4
-10.868027 5.3209915 1.7820261 2
-10.844585 5.2874985 1.3863673 6
-10.830376 5.334507 2.3175149 16
-10.893623 5.3429146 2.5774057 17
-10.80769 5.4047813 2.6805475 3
-10.874296 5.4162254 2.3030508 68
-10.850231 5.4348564 2.7104607 3
-10.886267 5.2917099 1.3017646 13
-10.856882 5.3783493 2.4271083 77
-10.865096 5.2844238 1.5753458 9.5
-10.868893 5.4480705 2.6639855 2
-10.882528 5.3132248 1.8507457 8.5
-10.800151 5.3101234 1.45456 9
-10.899043 5.4478416 2.6558623 4
-10.805198 5.3329735 1.4358846 3
-10.770985 5.2974701 1.8003892 7
-10.779059 5.4439812 2.5487568 17
-10.879382 5.289341 1.6501461 15
-10.883387 5.3563881 2.3993962 11
-10.8657 5.3272057 2.4292068 9
-10.755466 5.4178963 2.3615303 6
-10.823194 5.3281593 2.5578609 6
-10.758806 5.3577461 2.489579 37
-10.882908 5.3662758 2.5633974 4
-10.74666 5.4562569 1.5567306 3
-10.839167 5.2923584 1.3836701 11
-10.901442 5.4306183 2.4774759 24
-10.883335 5.4015121 2.2922094 11
-10.818501 5.4037018 2.7324181 3
-10.7815 5.4456215 2.7941947 1
-10.881405 5.3652687 2.7353778 30
-10.794479 5.3934288 2.2511778 3
-10.87771 5.3224564 1.63744 8
-10.882446 5.4408226 2.2388885 11.5
-10.837915 5.3610001 2.4192801 73
-10.798141 5.3890305 2.7186022 2
-10.827335 5.3886871 2.3092334 14
-10.857415 5.2980957 1.9976987 6
-10.827028 5.4061241 2.5492339 12
-10.806853 5.3642807 2.5606868 14
-10.83359 5.3888588 2.4728742 55
-10.800035 5.3758926 2.6720629 3
-10.866231 5.3248444 2.4614446 11
-10.858474 5.355278 2.4429994 16
-10.843424 5.3880539 2.4285035 19
-10.733289 5.3070869 1.5733266 3
-10.897777 5.4567795 2.7305417 2
-10.873724 5.4339828 2.3299742 3.5
-10.895102 5.4086761 2.3806319 25
-10.780524 5.2800827 1.6367918 7
-10.749037 5.4074783 2.3556726 4
-10.841467 5.3014259 1.6698385 4
-10.751286 5.3074532 1.7569628 4
-10.849947 5.4497566 2.1743121 9
-10.823615 5.3707047 2.4763627 44.5
-10.792838 5.3736458 2.303102 28
-10.899849 5.2932549 1.9987068 11
-10.865846 5.3849602 2.4232578 16
-10.807558 5.4069595 2.3357506 5
-10.90027 5.3813362 2.2749767 11.666667
-10.768454 5.4380684 2.3741388 2
-10.873072 5.4518471 2.8025007 3
-10.900187 5.462677 2.7102277 2
-10.883523 5.4005165 2.4465985 32
-10.902561 5.4042358 2.2571502 19
-10.867151 5.2909813 2.1174059 14
-10.860355 5.4001808 2.3761406 31
-10.856267 5.3694305 2.569581 2
-10.839316 5.3937645 2.3753221 33
-10.828815 5.3863525 2.4169216 31
-10.731519 5.2924042 1.6584998 8.5
-10.849055 5.4406509 2.7762089 3
-10.845671 5.3997345 2.3965228 1
-10.853455 5.297039 2.0545259 9
-10.868799 5.2730446 1.2385679 12.5
-10.839289 5.4100914 2.3088598 17
-10.807744 5.370575 2.5837674 21
-10.810385 5.4002075 2.2393904 23
-10.775142 5.3813934 1.477141 5
-10.821211 5.3169441 1.5989032 6
-10.766096 5.2937927 2.229166 11
-10.72963 5.2917938 1.6421411 2
-10.905839 5.3192062 1.692827 10
-10.818437 5.393158 2.5008812 44
-10.768759 5.3662453 2.461411 26
-10.826487 5.2721748 1.086024 12
-10.818988 5.289196 1.8946154 9
-10.895618 5.306385 1.5718368 10
-10.877138 5.3953438 2.493216 29
-10.765087 5.2924538 1.7556663 6
-10.82767 5.2846527 1.8335509 10
-10.901743 5.3446617 2.2430792 7
-10.80481 5.4095421 2.5218136 2
-10.826569 5.2865944 1.9174951 6
-10.890957 5.467392 2.7088585 3
-10.894327 5.3033409 1.828338 11
-10.817303 5.44133 2.503098 1
-10.780061 5.4528961 2.473393 2
-10.747426 5.4566498 2.3802476 2
-10.849845 5.3944435 2.5830739 2
-10.871894 5.3210182 2.1820846 5.5
-10.900389 5.4199944 2.4604146 36.5
-10.767668 5.4095306 2.5160472 9
-10.900134 5.2966194 2.5750813 10
-10.807148 5.4179153 2.3437777 3
-10.797403 5.3756027 2.2492621 2
-10.758863 5.3445969 1.7671454 7
-10.741949 5.376049 1.4929001 6.5
-10.845672 5.4055443 2.3965364 28
-10.88776 5.4753456 2.6058965 3
-10.814589 5.3001747 1.9977686 9
-10.852164 5.4112968 2.4500778 52
-10.891061 5.2985344 1.7538344 10
-10.806582 5.3664474 2.4056196 5
-10.76441 5.380043 2.478615 10
-10.793366 5.4369316 1.222581 3
-10.803867 5.416687 1.3134792 2
-10.86513 5.4356956 1.6965095 1
-10.882837 5.3732529 2.5173893 10.5
-10.865487 5.2808037 1.6609111 11
-10.883827 5.2755928 1.3841946 11
-10.829706 5.3517838 1.5649232 4
-10.741477 5.416256 1.5803549 4
-10.902288 5.4247627 2.3115931 3
-10.84663 5.2977486 2.599709 18
-10.762493 5.3101311 1.5056341 6.5
-10.785439 5.3784637 2.4394848 8
-10.791203 5.376976 1.9066842 5
-10.858368 5.4269753 1.2502912 3
-10.844635 5.4424591 2.7245116 3
-10.757501 5.3685608 2.72667 4
-10.812295 5.4297218 2.2063241 22.5
-10.829081 5.4819756 1.2518924 4
-10.861973 5.3977165 1.4538984 11
-10.856655 5.4536629 2.7892427 4
-10.835019 5.4076996 1.2693946 255
-10.767853 5.412323 2.2612779 5
-10.856689 5.4742165 2.5899019 3
-10.844761 5.3741913 1.5611179 1
-10.881028 5.2951622 1.8761721 24
-10.750363 5.3549232 1.5453472 8.5
-10.740491 5.4365845 2.7639718 3
-10.780783 5.2793198 1.3843529 24
-10.803915 5.3796806 2.6043129 7
-10.746618 5.4311333 2.2688949 29
-10.823227 5.2942734 1.715614 11.5
-10.772131 5.3005943 1.8300512 11.5
-10.891471 5.4611664 2.3582366 7.5
-10.871476 5.3942947 1.0918961 255
-10.883906 5.2998085 1.489383 13
-10.900152 5.407341 2.4699047 7
-10.793578 5.3786392 1.5888152 8.5
-10.813393 5.3116837 1.3620338 16
-10.839548 5.3221016 1.8386236 6.5
-10.756286 5.3101158 1.1282622 3.5
-10.861054 5.3623352 2.0177515 4
-10.819444 5.2879601 1.9997407 3
-10.74884 5.3141594 1.1866475 4.5
-10.792014 5.3379326 1.6318293 4
-10.863004 5.4234924 2.5614104 4
-10.877651 5.2857437 1.2283206 4
-10.878164 5.3291931 2.1520166 8
-10.843801 5.2869873 1.2411902 5.5
-10.908232 5.2814751 1.39419 8.5
-10.840218 5.3480148 2.2923183 3
-10.890306 5.2762718 1.3930707 7.5
-10.807055 5.3340111 1.9347495 5
-10.744883 5.4518547 1.6555686 2
-10.863977 5.3830032 2.5300584 9
-10.901879 5.3151474 1.9275686 7
-10.760395 5.2898865 1.1112307 3
-10.852768 5.3322029 2.0085511 4
-10.812921 5.2982178 1.4649856 4
-10.874033 5.416008 2.5125782 4
-10.848668 5.3849525 1.1736238 4
-10.845207 5.3532677 2.0346005 3
-10.863121 5.3028679 1.5085313 3.666667
-10.797086 5.4522362 2.5202975 19
-10.738905 5.386158 2.2075686 2
-10.898994 5.3692474 2.5328984 7.5
-10.735594 5.2744064 1.2971184 2
-10.81004 5.4211311 2.4936149 12
-10.839222 5.3829689 2.5044711 10
-10.726484 5.306469 1.1974404 4.5
-10.896683 5.2874146 2.0244865 11.5
-10.880556 5.3950119 2.5543859 4
-10.77328 5.4613075 1.8169838 3
-10.899972 5.4394226 2.6477394 27
-10.738102 5.3647423 1.4289477 3.5
-10.800373 5.3354759 2.2359641 4.5
-10.864578 5.3650284 2.4873424 12
-10.859747 5.2979393 1.5888213 6
-10.879683 5.2962799 2.1163981 9
-10.825136 5.3885078 2.5781465 7
-10.842557 5.3518257 1.4439647 2
-10.825316 5.4323349 2.2200539 1
-10.863399 5.3233185 2.180886 2
-10.85253 5.2842751 1.7785668 8.5
-10.750355 5.4694405 2.3989627 2
-10.726594 5.299366 1.3632125 6
-10.802568 5.3818626 2.5936034 14.5
-10.798523 5.313612 1.5469167 4
-10.798904 5.3695469 1.3252802 2.5
-10.759436 5.2865887 1.345644 2
-10.749719 5.383997 1.5934689 2
-10.886227 5.3621197 2.3710647 2.5
-10.764669 5.3109684 1.6543224 4
-10.82849 5.3607197 1.1953479 2.5
-10.86694 5.305769 1.9280978 3
-10.775454 5.4596386 1.3914161 3
-10.732277 5.3523083 1.644724 8
-10.743636 5.3318539 1.4360853 3.5
-10.762284 5.4580441 1.5514603 3
-10.737483 5.4448166 1.6229563 3
-10.830367 5.2884769 1.576226 2
-10.738347 5.3772449 1.9187634 2
-10.791099 5.4090672 2.390363 3
-10.730113 5.4126196 1.1094853 2
-10.776387 5.3503542 1.1177474 3
-10.729924 5.4329643 1.9988803 2
-10.828918 5.3250618 2.4639754 6.5
-10.813864 5.2822275 1.7890751 5
-10.87207 5.4749899 2.2297471 1
-10.795094 5.3708076 1.4142989 3.4000001
-10.795703 5.4461908 2.2807059 4.333333
-10.746477 5.3238125 1.8284994 6
-10.731608 5.3717613 1.6375761 2
-10.732789 5.3573523 2.0663838 3
-10.843196 5.3023806 1.1809704 7
-10.757856 5.3874855 1.2237229 1.916667
-10.743388 5.4399743 1.4747707 0.91666698
-10.724185 5.4301624 1.1485322 1.125
-10.886299 5.4614863 1.2188351 0.5
-10.803824 5.4578028 2.4596243 5.166667
-10.906867 5.2973242 1.3489456 2.7777779
-10.830851 5.2914348 2.2212963 4.9953699
-10.836106 5.4381528 2.5765214 8
-10.72838 5.3902168 2.6050963 16.928572
-10.876752 5.4389591 1.1463392 64.625
-10.88924 5.479919 1.5743401 1
-10.887539 5.4788733 1.9511349 1.666667
-10.814082 5.4397478 2.7563989 7.3000002
-10.767332 5.3562946 1.4818676 4.5847492
-10.784821 5.4038925 1.8588669 3.7857139
-10.80537 5.3646488 2.2334371 2.3809519
-10.734011 5.4138641 2.6656706 8.1333332
-10.902493 5.4386597 1.3209887 1.5
-10.902609 5.4674196 1.5837123 1
-10.886727 5.4623713 1.9858525 1.222222
-10.883492 5.453476 2.3959191 5.8777781
-10.738098 5.3583651 2.7779837 1.5
-10.785796 5.3467078 2.5923188 2.4222219
-10.871063 5.476881 1.585809 1.666667
-10.865459 5.4657125 1.2629001 2.133333
-10.863713 5.4798679 1.6850053 2.5
-10.82098 5.428359 2.2661283 4
-10.819983 5.4526949 2.5663407 3.458333
-10.866091 5.4747329 1.4319741 1.811111
-10.835907 5.4395404 2.4604416 2.5
-10.886597 5.4507542 2.5992277 8.5
-10.840269 5.447834 2.688976 6.75
-10.901918 5.3913183 2.2389345 2.833333
-10.829142 5.4093828 1.1484752 2.428571
-10.800955 5.3834457 1.5294243 3.071429
-10.839422 5.4280467 1.9804747 3.0462959
-10.824297 5.4598627 2.3774099 4.3125
-10.732826 5.4027777 2.4753833 13.25
-10.863852 5.3256874 2.6681314 11.020834
-10.902155 5.3515706 2.0473883 3
-10.851069 5.3504691 1.1610864 86.888885
-10.879261 5.3609371 1.552065 5.083333
-10.888186 5.3635516 1.9502821 2.520961
-10.900923 5.3974323 2.354125 1.625
-10.790308 5.3737388 2.7994847 8.3999996
-10.839535 5.3175759 1.397162 3.2
-10.840159 5.2929821 1.7214966 1.833333
-10.728298 5.3381844 1.8266892 3.669697
-10.731708 5.3238029 2.2411518 3.346154
-10.787479 5.4687734 2.6629329 7.7476201
-10.889606 5.4604201 1.3457263 2.866667
-10.885654 5.4784002 1.77016 1.3
-10.870724 5.4659963 2.2024543 1.844444
-10.896037 5.4712105 2.6320288 4.4000001
-10.805303 5.4006863 2.564055 7
-10.8997 5.2877688 1.3293871 2.104167
-10.845241 5.3587389 2.568543 7.5
-10.845404 5.3267198 1.2572299 3.25
-10.861353 5.3618121 1.6983786 1.9
-10.774553 5.3656564 2.0745118 0.55000001
-10.837519 5.3365607 2.515728 2.295238
-10.863007 5.3622909 1.3229718 3.9553571
-10.874244 5.3926616 1.6849811 6.8095241
-10.893822 5.3762097 2.0484073 2.3571429
-10.786831 5.3774738 2.069288 4.4444451
-10.839695 5.3750696 2.5240457 3.6297619
-10.899965 5.3672781 1.5790259 1.5
-10.903882 5.4485483 1.861473 0
-10.896986 5.4445314 2.7384043 0
-10.87221 5.4145885 1.3151772 1
-10.874205 5.4297595 1.604089 0
-10.865492 5.3392057 1.0840712 3.6349211
-10.889288 5.3288789 1.48244 2.7142861
-10.804714 5.3351536 1.9014341 1.833333
-10.847953 5.3471775 2.2986979 2.087302
-10.881742 5.3893709 2.699728 8.9375
-10.891867 5.4320049 2.137955 0
-10.880488 5.3723583 2.558506 0.166667
-10.85797 5.3536763 2.7283735 0
-10.840149 5.4565535 2.7293344 0
-10.8167 5.3611298 1.9285128 7
-10.841808 5.4186935 2.319875 16
-10.786476 5.3073463 1.7190752 6
-10.864685 5.3141289 2.2594061 5
-10.882477 5.4380341 2.4134383 24
-10.848553 5.3432655 2.0741646 5
-10.894318 5.3711281 1.920321 2
-10.855637 5.3983231 2.7946229 3
-10.869534 5.4325981 2.3552623 46
-10.83147 5.3313255 2.0125976 8
-10.867165 5.3833733 2.6406608 14.5
-10.87373 5.3887749 2.1292496 10
-10.776592 5.2885017 1.9903405 3
-10.872971 5.4008217 2.3968108 15
-10.85471 5.4221802 2.2297425 6
-10.896828 5.4301834 2.3639326 16
-10.863251 5.4372787 2.2708879 32
-10.797497 5.3053246 1.9787545 6
-10.856239 5.4269981 2.2268131 2
-10.896027 5.3777771 1.323758 5
-10.845837 5.3512039 1.2189807 3
-10.908674 5.3722 1.3609357 5
-10.874924 5.3504257 2.1395476 31.5
-10.900133 5.3170853 2.1008897 3
-10.802567 5.3234711 1.5490832 5
-10.83959 5.2923965 1.451529 4
-10.888824 5.3511353 1.9896245 7
-10.837996 5.288765 1.4017632 6
-10.904158 5.346962 1.5134557 6
-10.888718 5.3239937 1.8372563 4
-10.883463 5.3193703 1.1730443 5
-10.899845 5.4116325 1.7633638 6
-10.732712 5.2972565 2.2665448 22
-10.895308 5.3394394 1.1158307 8
-10.791605 5.295517 1.4955173 4
-10.836535 5.4516068 2.7489004 4
-10.742095 5.3337708 1.6344935 3.5
-10.848412 5.3154869 1.1923808 12
-10.777285 5.4037628 1.629761 9.5
-10.785257 5.3366203 2.659122 255
-10.809705 5.2925949 2.0230076 14
-10.79353 5.2858238 1.9620019 17
-10.809807 5.3494682 2.3340046 6.5
-10.884044 5.301075 1.4013786 4
-10.853844 5.4761925 1.3633579 6
-10.809233 5.3769417 1.2393882 13.5
-10.834724 5.2913399 1.8609926 17
-10.813443 5.3048363 1.9354568 40.5
-10.879105 5.3224068 1.3012116 16
-10.86025 5.3073044 2.2801449 31
-10.894259 5.2962761 1.939876 28.5
-10.861412 5.3103104 1.5705475 19
-10.85947 5.4515457 2.4768403 6
-10.859224 5.3061028 2.1504135 5
-10.809172 5.2988243 2.5163136 65
-10.794868 5.4065628 1.5554645 5
-10.903841 5.3197975 1.336237 10
-10.728004 5.4153786 2.6721072 10
-10.902706 5.2892418 1.7455587 9
-10.746633 5.3071365 1.3161631 9
-10.788741 5.2906761 2.2598441 9
-10.766056 5.4061699 2.3150377 3
-10.737514 5.3081055 1.5652281 8.666667
-10.726583 5.4695587 2.3941588 8
-10.903545 5.2924118 1.5852025 10
-10.899121 5.3115082 1.1663151 3.5
-10.758657 5.3004341 1.7497494 8
-10.820147 5.4501686 2.3288817 11
-10.761444 5.4451981 2.6927173 2
-10.825436 5.4346008 1.4929011 3
-10.785056 5.4194298 1.6871235 3
-10.887611 5.4444275 2.3993151 32.5
-10.779254 5.4512939 2.2957454 10
-10.765006 5.4101143 2.6545341 1
-10.899601 5.3085136 2.6978657 5
-10.839051 5.2878456 1.5994484 7
-10.759012 5.2946358 1.4847875 4.666667
-10.821604 5.4470749 1.2790501 1
-10.800102 5.4346924 2.0639055 1
-10.730947 5.4751434 2.5252976 8
-10.741973 5.2849236 1.3309081 6
-10.761462 5.3318596 2.2351923 2
-10.880106 5.277626 1.4628252 7.5
-10.864212 5.4766045 2.2295761 8
-10.785772 5.305088 1.9038672 4.5
-10.749144 5.424469 2.0670757 2
-10.759041 5.4146118 2.4008837 37.5
-10.735381 5.3287659 2.5112379 34
-10.896564 5.33634 2.5444081 6
-10.727711 5.3016624 1.8376802 4
-10.799334 5.3447037 2.6636553 14
-10.80196 5.2877998 1.4362489 1
-10.845863 5.4315166 2.5031054 6
-10.787281 5.4205589 1.3121172 4
-10.767088 5.4244347 2.2607431 2
-10.72994 5.4400845 1.3386472 2.5
-10.751266 5.4637699 1.6464517 1
-10.78089 5.2814789 1.2582742 4.5
-10.823846 5.4489708 2.3520808 3
-10.823429 5.410078 2.4190836 6
-10.769895 5.3018875 2.0213089 4.5
-10.821639 5.4481277 2.7876594 1
-10.734115 5.3814354 1.3976476 3
-10.866656 5.3636742 2.1500378 6.5
-10.841145 5.4577866 1.1778605 4
-10.820625 5.4164505 1.9301066 4.5
-10.743237 5.3660717 2.6446092 15.333333
-10.873539 5.316391 2.5802255 33
-10.846878 5.4751244 1.7345197 6
-10.901793 5.4639015 2.4797413 32.5
-10.863961 5.4243279 2.3509395 15.666667
-10.738984 5.4253197 2.5065591 16.666666
-10.823419 5.3415165 1.442533 5
-10.84287 5.3021145 2.1249049 3.5
-10.880153 5.4696999 1.2757653 3
-10.891974 5.3972645 1.946782 3
-10.812265 5.4681778 1.6819514 9
-10.871387 5.4582615 2.7531362 1
-10.852431 5.4737206 1.9989496 3
-10.797533 5.4569874 1.1023973 4
-10.80353 5.4440727 1.7184775 4
-10.743257 5.4106293 2.6789436 14.333333
-10.750532 5.3433018 2.1541917 4.333333
-10.840444 5.2892361 1.8841249 3
-10.845427 5.3894348 2.7087057 5.25
-10.776474 5.4277058 2.0148766 3
-10.810308 5.3533955 1.2654667 3.5
-10.747122 5.3476 1.6777191 4.333333
-10.735477 5.4619484 1.7236017 4
-10.81381 5.321434 1.1942482 4.25
-10.725198 5.4124107 1.1431921 5
-10.729836 5.3370209 1.6373162 6
-10.756671 5.4727631 2.1707845 2
-10.790085 5.4517441 1.5863384 2
-10.754492 5.4539022 1.352684 3
-10.841196 5.4678802 1.15536 4
-10.754501 5.400032 1.6389784 3.2
-10.800484 5.3167171 2.1145291 2.5
-10.824091 5.4144535 2.4873834 11
-10.776988 5.3277988 2.5749879 35
-10.793961 5.447238 1.2692336 3.25
-10.807888 5.4760065 1.1653275 2.5
-10.838802 5.4193487 1.6255684 2
-10.797466 5.2885818 1.5993268 1
-10.792982 5.4242134 2.1075714 2
-10.878834 5.4193678 2.1004267 1
-10.836714 5.4598885 2.5930352 4
-10.856145 5.4200897 1.5282446 1
-10.785455 5.4212055 1.9951403 2.5
-10.843675 5.379591 1.9849303 4
-10.822617 5.4594278 1.5060582 1
-10.742553 5.3441315 2.1520495 4
-10.860869 5.370553 2.6075754 13.666667
-10.861333 5.3752766 1.3187352 3.333333
-10.845586 5.4620628 1.7587736 4
-10.755792 5.4491878 1.4909458 2
-10.790349 5.4402146 1.9012239 0
-10.739587 5.4637275 2.3088791 1
-10.731278 5.4447665 2.6633086 1.666667
-10.772983 5.4172459 1.7195319 3
-10.75969 5.3372612 2.0957334 2
-10.818638 5.3470011 1.3176295 7.75
-10.789921 5.295927 1.8666887 7.125
-10.822126 5.3710556 1.1121703 7.5999999
-10.813482 5.2958403 1.4674153 5
-10.762005 5.4295564 1.9024706 1
-10.753576 5.3719826 1.5942484 1
-10.80332 5.4297752 2.6155777 25.25
-10.759001 5.3708239 2.6061018 16
-10.727959 5.4496927 1.0938613 2.8
-10.738916 5.4519501 1.1802953 4
-10.781979 5.3664551 1.1031996 0.5
-10.786013 5.389657 1.4215101 1
-10.773921 5.4303122 1.2054983 0.5
-10.73442 5.4509335 1.1849977 1.833333
-10.775108 5.3219213 1.4097592 4
-10.826779 5.4629955 2.4862545 33
-10.788749 5.2837038 1.5610025 7.5
-10.862527 5.3245268 2.6007507 22.5
-10.731665 5.3113432 1.7904645 3.925
-10.878058 5.3708167 2.5406015 25.25
-10.728349 5.4158554 1.8919218 2.166667
-10.72744 5.4714041 2.3284829 7.8571429
-10.854086 5.3640938 2.663027 71.25
-10.764218 5.4358416 1.5824513 2.25
-10.808334 5.3044477 1.1299717 6.2857141
-10.850844 5.3431969 2.5613253 78.333336
-10.781104 5.408536 1.7483464 0
-10.735237 5.425189 2.5199337 57.599998
-10.75084 5.4717145 1.8687634 1
-10.728033 5.4090505 1.7331311 1.6
-10.744504 5.4031253 1.3671671 3.3
-10.8805 5.3673959 1.3080412 9.666667
-10.837498 5.4355092 1.9322176 0
-10.864591 5.3124757 1.4082128 16.666666
-10.784392 5.4245968 1.1927792 0
-10.785121 5.4200258 1.4414756 0
-10.801911 5.4259524 1.1748378 0.5
-10.865696 5.304924 1.0896665 9.5
-10.79962 5.4233856 1.3679374 0
-10.791296 5.4254336 1.1841565 0
-10.765082 5.4400182 1.1141428 1
-10.780233 5.4485836 1.3688999 0
-10.802497 5.3895397 1.2125896 2.75
-10.773894 5.4282084 1.2590322 0.5
-10.780271 5.4319839 1.0952712 1
-10.776762 5.4412479 1.1232067 1
-10.773426 5.4360638 1.1341294 0
-10.742759 5.4505711 1.2143742 1
-10.801471 5.4545245 1.4676744 1
-10.733784 5.455647 1.613035 1
-10.791243 5.4457393 1.448051 1
-10.72933 5.4199243 1.2982486 2
-10.754252 5.4733047 1.5682247 1
-10.772958 5.4392824 1.4609734 0.5
-10.798298 5.3891945 1.7006721 0.33333299
-10.768161 5.4134464 1.1382676 2.75
-10.770791 5.4625745 1.7870255 0
-10.743391 5.4486294 1.468962 1
-10.855931 5.3209934 1.7499118 14
-10.731193 5.3956771 1.1828916 2.7333331
-10.804647 5.3893366 1.2840331 2.166667
-10.805595 5.3683329 1.3169298 8.375
-10.733428 5.468111 1.7265135 0.5
-10.796348 5.2968984 1.6735895 7
-10.804141 5.3530679 1.7198116 3
-10.724469 5.448854 1.3327843 1.4
-10.752672 5.3798766 1.689181 3.25
-10.794312 5.4676847 1.9719478 1
-10.72501 5.4580688 1.2334522 2.616667
-10.726029 5.4633074 1.6117181 0.5
-10.863339 5.3290496 1.8260722 9
-10.724207 5.4545298 1.2584105 3.3
-10.765405 5.4473057 1.8890654 0
-10.728895 5.3680682 1.6740376 3.25
-10.750709 5.4670129 1.9601123 1
-10.764445 5.3744364 1.6810014 2.5
-10.756545 5.391202 1.6848212 3
-10.789141 5.2987657 1.2261403 5.75
-10.770729 5.386085 1.2723442 4.166667
-10.772983 5.3668823 1.3154511 7.0250001
-10.813387 5.280798 1.6668298 4.333333
-10.818979 5.3332539 1.3155472 11
-10.830832 5.3360085 1.3256192 16.25
-10.84455 5.2933321 1.6911898 6
-10.770156 5.4061108 1.2269585 2.3
-10.832651 5.316143 1.2375515 6.333333
-10.881165 5.3059869 1.6882226 3
-10.734055 5.4112034 1.1573153 3.1904759
-10.882789 5.2847362 1.2411352 10.75
