# .PCD v0.7 - Point Cloud Data file format
VERSION 0.7
FIELDS x y z intensity
SIZE 4 4 4 4
TYPE F F F F
COUNT 1 1 1 1
WIDTH 1440
HEIGHT 1
VIEWPOINT 0 0 0 1 0 0 0
POINTS 1440
DATA ascii
-11.402927 8.2726917 3.1097922 6
-11.447193 8.3668184 3.5018961 1.5
-11.419559 8.2818747 3.505275 6.416667
-11.443972 8.3478575 3.9067745 2
-11.389929 8.2712183 3.9168644 6
-11.395143 8.2706165 4.3249707 6
-11.440705 8.3716364 4.7351537 1
-11.438004 8.3099966 4.7300348 7
-11.386618 8.2619619 4.7416067 6.5
-11.444475 8.3544846 5.015398 2
-11.394426 8.2801418 5.1666298 5.291667
-11.513891 8.1469717 -0.00323522 8
-11.467152 8.1055059 0.53387654 4.666667
-11.478824 8.124383 1.7173758 7
-11.46843 8.1195269 2.1163158 6.25
-11.460033 8.1279821 2.5172396 6.25
-11.424491 8.1286898 2.9266939 4.8000002
-11.430915 8.1361742 3.3312879 5.291667
-11.412997 8.1394377 4.5833521 5.5
-11.41025 8.1436338 5.0127172 5.833333
-11.422078 8.1677856 5.4457712 4
-11.410355 8.2487011 0.53039593 3
-11.490859 8.0992012 1.0831885 7
-11.482004 8.1282673 2.2997458 0.125
-11.481065 8.1467609 2.7083058 0.5
-11.442235 8.134449 3.1293166 0.33333299
-11.456511 8.1397018 3.5419216 1.25
-11.44847 8.1285496 3.9632287 1.5
-11.482148 8.2454967 4.3814211 0
-11.537317 8.1023369 4.3603792 2
-11.455472 8.1578484 4.8171601 1.625
-11.465834 8.1677303 5.2523146 2.666667
-11.46229 8.1618671 5.5493679 3
-11.449657 8.1549606 6.1539488 4
-11.482088 8.1967163 7.4059682 5
-11.486627 8.274519 8.4252748 2
-11.421486 8.2421083 0.018810119 5
-11.402597 8.1638165 0.02723464 5
-11.414197 8.2679529 0.43138441 2.5
-11.427545 8.216135 0.84696352 2.5
-11.39692 8.1606064 0.7155968 2.5
-11.410097 8.2314644 1.1224446 0
-11.383506 8.158577 1.1287271 0.5
-11.421649 8.2439632 1.5345628 0
-11.35434 8.1549091 1.4069719 0
-11.417141 8.2376251 1.9496404 0
-11.402561 8.1539316 1.9530749 0
-11.406688 8.2360058 2.3677785 0.33333299
-11.355439 8.1647015 2.2371716 0
-11.388535 8.2406569 2.7900152 1
-11.381452 8.248353 3.2136567 1
-11.372714 8.2285032 3.6404076 2
-11.366625 8.2001495 4.071126 1.833333
-11.361527 8.214716 4.5115757 4
-11.357754 8.2213659 4.8087711 3.333333
-11.44778 8.2711658 0.16546595 0
-11.451103 8.2576265 0.61821377 0
-11.434823 8.1881237 0.77559483 0
-11.39979 8.3636084 8.4777346 0
-11.420716 8.3935623 9.2237692 1
-11.429655 8.2656345 0.18122143 0
-11.435472 8.207325 0.65276736 0
-11.480804 8.2296658 0.95372075 0
-11.462634 8.267725 0.78012097 0
-11.455247 8.2871971 1.0948526 0
-11.436969 8.2914038 1.4110838 0
-11.475075 8.2689581 1.7221757 0
-11.329306 8.3590641 8.1139784 0
-11.310493 8.3587599 8.4963045 0
-11.322315 8.352767 9.2627678 1
-11.343357 8.3581085 9.6486998 2.5
-11.482503 8.1481762 0.46198773 0
-11.426644 8.1316748 0.94993448 1
-11.491373 8.246603 1.2516477 1
-11.438934 8.1487226 1.2693605 1.333333
-11.500786 8.2317228 1.5735552 1
-11.485387 8.1749096 1.58167 1
-11.405475 8.1298494 1.5971172 0.5
-11.496187 8.2982941 1.8886659 0
-11.469496 8.1809235 1.903899 1
-11.443706 8.2839556 8.0259361 0
-11.452954 8.3052597 8.401824 0.5
-11.471864 8.3284407 8.7781429 1
-11.476826 8.3959541 9.1737747 0
-11.525631 8.3584423 9.545064 2
-11.467543 8.2878227 9.5649433 1.5
-11.53409 8.3453712 10.357711 3
-11.393902 8.2629051 7.1470437 4
-11.357872 8.2099419 9.3898315 5
-11.433651 8.2007141 0.7643522 2
-11.447914 8.1341515 1.8924259 5
-11.395786 8.1314507 3.0168743 6
-11.397381 8.1819 7.5787449 2
-11.426579 8.1820374 2.4958985 4
-11.388691 8.1711006 3.6235096 5
-11.356621 8.1543236 4.7564201 4
-11.390717 8.2416573 8.2040768 3
-11.352337 8.2331352 9.3490591 5
-11.331997 8.233345 8.432806 2
-11.377949 8.2146721 9.5722103 6
-11.314716 8.2712975 8.8770056 2
-11.445351 8.2603149 4.2257991 2
-11.385277 8.3028488 5.4713902 2
-11.384754 8.2726173 6.7157993 4
-11.354706 8.2768021 7.9699402 2
-11.421413 8.2673302 0.15923119 4
-11.470039 8.2271729 1.4181237 6
-11.4618 8.2613907 2.6810546 4
-11.511757 8.2162399 3.9420214 3
-11.478951 8.1837959 4.1398377 5
-11.368114 8.2609138 6.6826 4
-11.318748 8.2922897 7.9515924 3
-11.539738 8.3333588 7.0662456 4
-11.55196 8.2801628 4.7419105 4
-11.529438 8.3300819 7.2737689 3
-11.521343 8.3467789 8.5506926 3
-11.552662 8.2674065 1.1396937 2
-11.52063 8.2509995 2.3949108 4
-11.518272 8.2970505 0.17665428 4
-11.511436 8.2274628 1.4281585 6
-11.455917 8.2286072 2.6813817 4
-11.485954 8.3199463 6.5155373 5
-11.408665 8.3458633 7.7921863 3
-11.429802 8.2005768 -0.087130129 4
-11.499275 8.2281952 2.4703648 2
-11.35569 8.1766739 4.990056 3
-11.377037 8.2632599 7.5709219 3
-11.398003 8.1814117 1.2778983 2
-11.523548 8.2598076 2.5884385 5
-11.44276 8.2561188 3.8507872 4
-11.508049 8.2954865 6.4208903 4
-11.430096 8.2778206 7.6999974 2
-11.530361 8.2669106 0.6406455 3
-11.50526 8.2739754 4.4641948 5
-11.514805 8.3514786 7.0591478 4
-11.519405 8.3084106 4.2771311 3
-11.520008 8.2198982 1.9388556 5
-11.456573 8.2705498 4.5242124 5
-11.50169 8.1812096 1.8960227 5
-11.400784 8.2392731 4.4666286 5
-11.54179 8.2739029 2.4407768 3
-11.541344 8.4004173 9.0207138 3
-11.549061 8.2179222 1.2046404 5
-11.489929 8.1687355 2.1244388 6
-11.427906 8.2230644 4.7003093 5
-11.375122 8.241909 7.3046641 5
-11.517269 8.2417603 1.7303753 5
-11.56052 8.2834969 3.053741 6
-11.491947 8.3142662 6.9638715 5
-11.528969 8.3493233 8.3066854 4
-11.562214 8.2552032 1.9349971 5
-11.447025 8.1868744 1.9461939 7
-11.474083 8.2358284 4.600275 4
-11.523731 8.2793884 3.9244947 4
-11.523468 8.3805389 7.8501477 4
-11.497082 8.1955452 1.7314997 6
-11.420498 8.1694984 2.9941278 5
-11.384937 8.2684937 9.4761047 5
-11.446041 8.1817894 1.0689247 2
-11.368301 8.2002296 3.6489244 6
-11.339245 8.274231 7.5751009 3
-11.466702 8.1941299 1.914 5
-11.379028 8.1504707 3.1711206 5
-11.505108 8.2784424 2.2917566 4
-11.552723 8.3221436 2.5998945 3
-11.56411 8.3217583 4.1398025 3
-11.563309 8.2253227 0.88228768 4
-11.508675 8.2200546 0.60808605 3
-11.498775 8.1792107 0.2971859 4
-11.562363 8.2202911 0.2058655 4
-11.555035 8.2490578 1.0255487 6
-11.524303 8.3231354 -0.28378546 2
-11.440586 8.1732521 1.5155632 4
-11.414799 8.2353249 2.8003619 2
-11.55069 8.2586746 0.14342725 3
-11.56617 8.323082 1.5864724 2
-11.500275 8.215786 -0.20824075 5
-11.515556 8.1992073 1.0640037 5
-11.49036 8.2576904 2.3443925 4
-11.385624 8.3577538 -0.077685833 8
-11.562357 8.2250137 0.35395694 4
-11.474356 8.2528687 2.852566 3
-11.528852 8.3110352 4.1299353 5
-11.556448 8.2086716 0.50547206 2
-11.501881 8.1458244 0.91163528 6
-11.513432 8.1808853 2.1809673 6
-11.5005 8.1252937 1.1863773 3
-11.510662 8.254261 2.0191824 5
-11.540562 8.3111267 3.2685788 5
-11.547813 8.236866 -0.073933721 5
-11.463896 8.3035736 3.5949087 3
-11.543369 8.383152 6.0841589 5
-11.484079 8.3288078 0.60642958 4
-11.500038 8.153614 0.34728229 3
-11.50828 8.1629372 1.572049 6
-11.49654 8.2137871 2.8055696 5
-11.514603 8.1861 -0.15385962 6
-11.530653 8.2001801 1.0683722 7
-11.529961 8.2486076 2.2985721 4
-11.476599 8.3127441 3.5001931 3
-11.409498 8.2232666 1.6836221 5
-11.424232 8.2362137 2.8956831 5
-11.437607 8.2465935 4.116024 5
-11.551504 8.2636108 0.92340714 6
-11.492392 8.2863541 2.1215115 3
-11.495544 8.3851585 5.8117619 3
-11.552979 8.2311478 0.39507544 5
-11.447088 8.3182983 2.8141885 3
-11.535301 8.256176 0.65713155 4
-11.512447 8.2517891 1.8557199 5
-11.551212 8.2329483 1.0481695 7
-11.493288 8.2465172 2.2339492 5
-11.427395 8.2728119 3.4312444 2
-11.478802 8.3673363 5.8891792 3
-11.549767 8.2148018 1.7870619 7
-11.481392 8.2615318 2.988703 5
-11.526743 8.3404655 2.3900743 2
-11.558022 8.3266106 2.0840578 5
-11.563255 8.2671013 0.81217235 3
-11.509811 8.1843948 1.6136669 3
-11.417688 8.1577835 2.7608056 5
-11.524981 8.1827965 3.9292612 5
-11.400942 8.2917213 7.419035 5
-11.329666 8.2212181 5.9321012 5
-11.410543 8.1453781 0.23066163 4
-11.357069 8.149498 1.3771513 5
-11.494314 8.2301064 2.5338342 4
-11.442017 8.2305794 3.6737812 7
-11.524885 8.216774 0.63901603 5
-11.458052 8.2657166 1.7826947 7
-11.531578 8.3379822 4.0949078 3
-11.434088 8.1283836 0.59859866 3
-11.401167 8.1379471 1.7394612 6
-11.354164 8.1931686 2.8898337 3
-11.483011 8.1568108 1.2530837 5
-11.378927 8.1481361 2.3903852 5
-11.46587 8.3112869 1.2926757 3
-11.52154 8.3260612 2.4326155 6
-11.565832 8.3745308 3.5836141 5
-11.445259 8.180378 1.6069359 2
-11.558928 8.2198563 0.37480295 3
-11.520113 8.20504 -0.040502369 4
-11.512307 8.1922874 2.182234 7
-11.487182 8.238327 4.426239 5
-11.522124 8.1907158 0.70249283 4
-11.437979 8.1925278 1.7989293 7
-11.532779 8.2899208 2.9215546 2
-11.35825 8.2388 4.0285974 4.5
-11.405955 8.2026596 4.3540459 2
-11.550226 8.298748 3.4007626 5
-11.531195 8.296936 4.4995956 5
-11.569738 8.2951813 1.4728165 2
-11.556628 8.3345909 3.6348605 3
-11.564902 8.2846146 2.8776305 7
-11.488292 8.1794853 0.10381532 4
-11.521192 8.1944351 1.1815279 5
-11.364956 8.2104492 2.2245486 2
-11.395741 8.2315216 3.3045318 4
-11.421055 8.2763901 4.3941975 5
-11.531623 8.3351402 4.2256088 2
-11.55383 8.2310829 1.7703334 6
-11.375463 8.2989731 3.8758621 3.5
-11.525969 8.1818199 1.047269 6
-11.441886 8.2181816 2.0883555 6
-11.460499 8.279953 4.2136135 5
-11.498451 8.1561584 1.0845158 5
-11.397718 8.1921349 2.1223042 4
-11.485674 8.2048073 3.1865132 5
-11.384779 8.2233963 4.2426572 5
-11.419559 8.1508102 1.6670668 3
-11.431881 8.198391 3.780802 3
-11.475172 8.1784058 1.4657838 6
-11.530708 8.2195587 2.5277321 4
-11.401446 8.238163 3.5754421 4
-11.447134 8.252697 4.6437678 3
-11.41559 8.1890717 0.94593632 6
-11.469225 8.2349701 2.0067749 5
-11.46281 8.1843681 1.0348201 7
-11.528708 8.245163 2.0844607 6
-11.41123 8.2714882 3.1213064 5
-11.46623 8.2868156 4.1771536 3
-11.528503 8.2452087 2.4436591 4
-11.480825 8.294857 4.5333805 3
-11.554472 8.2574463 3.3552809 3
-11.55442 8.1758728 -0.00025618001 3
-11.440361 8.2164001 1.0255002 5
-11.464022 8.2882957 4.144537 5
-11.55687 8.2519035 1.2915896 7
-11.388273 8.2196846 0.61801469 2
-11.45039 8.2140694 1.6677507 7
-11.502946 8.257988 2.7160869 3
-11.357758 8.1829529 0.4035176 4
-11.37679 8.1372757 1.8839729 5
-11.374809 8.2322769 5.0005822 1
-11.457229 8.1777077 1.58341 6
-11.546918 8.2181473 0.5801453 5
-11.565598 8.3284798 3.6736894 4
-11.495408 8.1795006 1.2224487 6
-11.405568 8.2188988 2.2498951 5
-11.42611 8.1905861 1.3204565 5
-11.333074 8.2676849 4.3957334 6
-11.365173 8.3136215 5.4289989 4
-11.444082 8.1703339 2.2599597 7
-11.496298 8.1942062 3.2771509 6
-11.414273 8.2123413 5.3305302 4
-11.518431 8.2408638 7.3978748 2
-11.38756 8.2739143 8.4397745 3
-11.436199 8.2443504 9.4794111 6
-11.317273 8.2859459 5.684092 5
-11.318819 8.3174095 6.7214561 3
-11.563519 8.274456 2.3589766 4
-11.479769 8.3529434 4.3800936 5
-11.531248 8.3679886 5.3902917 4
-11.447132 8.1994743 1.7591965 4
-11.361414 8.2434196 5.7917981 4
-11.438856 8.2833824 6.8080721 2
-11.332867 8.3191986 7.8418298 4
-11.407265 8.3344917 8.8690205 2
-11.302071 8.3778267 9.9071312 3
-11.541595 8.2513962 5.1671185 5
-11.473709 8.3157806 7.1916356 2
-11.52265 8.293232 8.2035284 4
-11.45739 8.3701134 10.27136 3
-11.518177 8.2690849 2.7936461 5
-11.432189 8.3713112 6.8387766 5
-11.495201 8.3089294 6.3514915 2
-11.455382 8.3287315 7.3709364 4
-11.460569 8.3286934 9.4134884 2.5
-11.380652 8.3308907 8.5653591 3
-11.310923 8.3243637 9.5792294 7
-11.352715 8.3389359 8.1081781 3
-11.361977 8.3729782 9.3008375 2
-11.41279 8.384243 7.0029054 5
-11.45982 8.386013 7.1302729 3
-11.340672 8.2460289 2.4526877 2
-11.339533 8.3230782 7.1456194 4
-11.312167 8.3633728 9.0637112 6
-11.376186 8.2402458 2.8297794 2
-11.326469 8.2922478 4.690855 2
-11.335211 8.35429 7.5160885 5
-11.390818 8.3542976 8.4653959 2
-11.442017 8.3391418 9.4099531 2
-11.533646 8.3392868 5.254343 2
-11.563637 8.3426781 6.183919 4
-11.400545 8.1606064 1.0024841 1
-11.356501 8.2083931 2.8373306 2
-11.332169 8.3630714 7.4723744 2
-11.345091 8.2568703 0.89616024 4
-11.500813 8.2055321 0.89009333 2
-11.374821 8.2395134 1.8073636 6
-11.406193 8.259449 2.7173905 6
-11.328979 8.3414345 4.5495591 4
-11.362297 8.3356171 5.4675512 5
-11.4106 8.3788757 6.3955312 3
-11.441665 8.3641281 7.3239641 1
-11.379195 8.3347511 0.72254097 2
-11.545116 8.2577972 2.5220571 1
-11.440138 8.3258247 5.2373624 6
-11.462874 8.3508797 6.1522088 4
-11.408672 8.1748924 1.1740627 3
-11.402153 8.1818962 2.0677125 4
-11.400631 8.2044868 2.9643605 3
-11.396387 8.2463264 4.7695098 3
-11.395939 8.2727013 5.6807218 2
-11.389299 8.2799263 6.5936904 2
-11.385307 8.2952881 7.5046196 2
-11.379543 8.3055305 8.4269772 2
-11.555158 8.2999954 2.9288106 3
-11.390422 8.2273979 2.4131811 6
-11.393491 8.2789497 5.0869956 5
-11.406676 8.332653 5.9928079 5
-11.407163 8.3484573 6.8989196 5
-11.41542 8.3874855 7.8060346 4
-11.408103 8.3801117 8.7184076 3
-11.40377 8.2159424 2.7862585 2
-11.356472 8.2718239 5.4479485 4
-11.33839 8.2843781 6.3447051 5
-11.320198 8.2969017 7.2453966 5
-11.308664 8.3289337 8.1465492 5
-11.356518 8.2507324 1.078321 4
-11.500175 8.1833191 1.0827973 6
-11.341143 8.2871399 1.9575225 3
-11.477066 8.1970329 1.9608964 7
-11.453951 8.2370338 2.8377476 6
-11.39683 8.3139305 5.484127 5
-11.374191 8.3300858 6.3743548 4
-11.355169 8.3572578 7.2729654 3
-11.477772 8.3882942 9.089139 2
-11.398269 8.1943741 0.8197754 3
-11.352595 8.245491 2.560523 2.5
-11.330867 8.2973061 5.1917934 6
-11.348432 8.3056717 6.0785594 6
-11.366088 8.3141251 6.9694209 4
-11.374785 8.2974319 7.8537502 2
-11.357292 8.2320366 2.425385 6
-11.308542 8.319664 5.0473042 2
-11.362642 8.2582893 1.4509305 6
-11.388144 8.2456245 2.3056061 7
-11.432011 8.257122 3.1618171 6
-11.36482 8.3069878 4.8900685 4
-11.408401 8.3167305 5.7585292 6
-11.455122 8.3339157 6.63484 3
-11.425657 8.3744736 9.2834806 6
-11.382432 8.3038216 5.5335011 2
-11.374621 8.297081 6.4014301 1
-11.440395 8.1931648 1.4083114 6
-11.327631 8.2615051 2.2585485 2
-11.471418 8.2090874 2.2545888 7
-11.427988 8.2446289 3.1097009 3.5
-11.398714 8.2775612 4.8168082 5
-11.437107 8.3119659 5.6783156 6
-11.461189 8.3097801 6.541409 3
-11.494299 8.3299675 7.4131832 1
-11.370205 8.3731461 8.2913809 4
-11.390261 8.3600655 9.1704063 6
-11.409042 8.216423 0.44339442 4
-11.415474 8.2268181 1.2877469 6
-11.419083 8.2527695 2.1303716 7
-11.423527 8.2582817 2.9731178 6
-11.439684 8.2871857 4.6701045 5
-11.457218 8.3249741 5.527801 4
-11.468937 8.3483353 6.3908482 2
-11.521624 8.1496353 0.51298624 4
-11.513384 8.1497116 1.349278 7
-11.501217 8.1618271 2.1832392 5
-11.49077 8.1761169 3.8552086 9
-11.501814 8.2215462 4.7007637 4
-11.500677 8.2385178 5.5480914 5
-11.501249 8.2596474 6.4024863 5
-11.498911 8.2740555 7.2604275 5
-11.498734 8.2934875 8.1173372 5
-11.502745 8.3230591 8.9888439 5
-11.448242 8.1897736 1.0065413 2
-11.442045 8.1899338 1.8366013 2
-11.315027 8.3484993 6.0361462 5
-11.315983 8.3658142 6.8892446 6
-11.312141 8.3720207 7.7503481 6
-11.298872 8.3714523 9.4792614 4
-11.38058 8.1672249 0.86237806 3.5
-11.388047 8.1780128 1.6859841 4.5
-11.396972 8.192028 2.5129416 3.5
-11.401605 8.1964188 3.3421109 3
-11.348496 8.2480049 5.0144897 6
-11.355657 8.2580795 5.8488975 6
-11.364533 8.2719231 6.6946821 6
-11.376611 8.2928352 7.5515985 4
-11.413707 8.3573227 10.151498 2
-11.411991 8.1942406 0.12273492 4
-11.402182 8.2005463 0.94234645 6
-11.404629 8.2338715 1.7651354 6
-11.407682 8.268631 2.590894 6
-11.402962 8.2864532 3.4204822 5
-11.402063 8.3127708 4.2533751 4
-11.400339 8.337162 5.0827274 2
-11.401962 8.3693008 5.9235511 1
-11.393723 8.3799858 6.7707682 1
-11.500415 8.1180573 0.042873461 5
-11.511592 8.1409607 0.85938746 5
-11.404613 8.2577324 1.6792725 2
-11.520053 8.1582146 1.6778699 7
-11.530919 8.1804657 2.5007477 7
-11.420135 8.2891006 3.3277783 2
-11.537253 8.1932831 3.3252549 5
-11.541005 8.2007179 4.1451402 5
-11.431527 8.3117905 4.9791059 2
-11.432538 8.3132935 5.8166876 3
-11.441998 8.3514977 6.6614175 3
-11.442819 8.3336296 7.500556 3
-11.468606 8.3871346 8.3595581 3
-11.443042 8.3328362 9.2113152 2
-11.422132 8.1856842 -0.082748286 5
-11.482909 8.1719818 0.73137665 3
-11.481954 8.199276 1.5471538 5
-11.475564 8.2155533 2.3648701 3.5
-11.476779 8.2475548 3.1879818 3
-11.405618 8.2987213 4.0116501 3
-11.463887 8.2801666 4.8333445 3
-11.464152 8.3106003 5.6659017 2.5
-11.528707 8.3056602 6.5085459 2
-11.512527 8.3213501 7.3505168 1
-11.501239 8.1379051 0.05126847 6
-11.547837 8.150898 0.86438978 3.5
-11.521142 8.1810493 1.6759568 4.5
-11.504115 8.230545 2.4926045 4
-11.53807 8.2198105 3.3132639 5
-11.504678 8.2370377 4.12571 6
-11.482184 8.2766266 4.9498181 6
-11.456025 8.3099022 5.7818947 6
-11.421309 8.3444214 6.6157761 3
-11.474877 8.3698387 9.162324 2
-11.347359 8.2390251 -0.12070885 5
-11.470999 8.161438 -0.11306301 3
-11.437466 8.188385 0.69411778 4
-11.402893 8.2134895 1.5027066 7
-11.381792 8.2650604 2.316237 7
-11.42025 8.27388 3.1355217 3
-11.451149 8.2678642 3.9496822 4.333333
-11.42214 8.305172 4.7702794 6
-11.393635 8.3443871 5.5996442 6
-11.356613 8.384964 6.4307866 3
-11.425755 8.3762016 8.1117258 2
-11.330273 8.2683144 1.3050038 1
-11.452988 8.114296 0.522385 6
-11.470919 8.1412315 1.329608 6
-11.460556 8.1174889 2.1376262 7
-11.490435 8.166893 2.952404 3
-11.499418 8.179409 3.7699575 6
-11.434343 8.2078285 4.5818763 6
-11.389774 8.2728958 5.3948836 2
-11.511948 8.1948166 5.4065337 3
-11.451593 8.2330208 6.2262888 6
-11.402155 8.2927551 7.0587692 3
-11.454668 8.2547874 7.9010544 3
-11.416483 8.3193932 8.7429085 2
-11.452753 8.2372437 9.5872746 3
-11.326906 8.2664604 1.6726807 4.5
-11.344856 8.2738762 2.4851115 6
-11.385187 8.296833 4.1110644 3
-11.330545 8.3233643 4.9239659 6
-11.366673 8.3610268 6.5857453 3
-11.537361 8.1201458 1.8003476 4
-11.530758 8.192522 6.7152414 6
-11.455383 8.2633305 7.5431776 1
-11.508524 8.2381191 8.3895435 2
-11.376886 8.2138901 1.0477017 6
-11.451202 8.2264709 1.8637004 1
-11.370228 8.2599068 2.6641302 5
-11.353296 8.291584 4.2937884 4
-11.343187 8.3359985 5.9309568 4
-11.469439 8.1082878 0.33578193 3
-11.408522 8.1510887 1.1323249 7
-11.417137 8.1697998 1.9380511 4.5
-11.418173 8.1766281 2.7464797 6
-11.363783 8.2314796 3.5519211 5
-11.505064 8.1859016 3.5682688 1
-11.430243 8.2082443 4.3758998 6
-11.370562 8.255825 5.1890082 6
-11.453299 8.258976 6.017745 2
-11.373775 8.2753754 6.8336701 5
-11.312201 8.3228607 7.6639781 1
-11.370409 8.3052177 8.5122471 4
-11.31605 8.3502922 9.3507156 3
-11.382466 8.1572342 0.5703938 5
-11.373309 8.1786957 2.1867049 7
-11.443809 8.1744614 3.0076156 2
-11.369737 8.2099533 3.806689 6
-11.38877 8.2595825 4.6281424 2.5
-11.36456 8.2434616 5.4496613 6
-11.372603 8.2930374 6.2815256 1
-11.356063 8.2750893 7.1071987 4
-11.412156 8.2542763 7.9522696 2
-11.361798 8.2299271 9.6402149 3
-11.541274 8.2464523 9.4453363 3
-11.479332 8.1638966 0.24227813 5
-11.468948 8.1694965 1.0411433 5
-11.468563 8.190134 1.8422378 6
-11.471397 8.2157116 2.6470721 4
-11.466351 8.2295246 3.4540985 5
-11.473116 8.2612362 4.2680831 5
-11.458652 8.2610989 5.0815201 3
-11.458681 8.28269 5.8947515 4
-11.456663 8.3014812 6.7183599 3
-11.467731 8.3402653 7.5556917 2
-11.461609 8.3678226 8.3940248 2
-11.443359 8.3479939 9.2268696 4
-11.460068 8.1481209 0.63616955 5
-11.431725 8.202446 1.438077 4.5
-11.459949 8.1971588 2.2375901 5
-11.489302 8.1934891 3.0398898 3.5
-11.450764 8.2183609 3.847358 7
-11.37838 8.3225937 4.66539 1
-11.481071 8.2157822 4.6573067 4
-11.387306 8.2880058 5.4771132 4
-11.523367 8.2306023 5.4757595 1
-11.414816 8.2809105 6.2961388 5
-11.452307 8.288784 7.1157804 6
-11.474707 8.2735481 7.9426503 2
-11.39366 8.3644257 8.7904434 3
-11.368517 8.2920799 9.6166039 4
-11.446482 8.1514015 -0.11027358 6
-11.45491 8.1977272 0.69030976 4
-11.439619 8.195034 1.4910352 7
-11.454485 8.2368774 2.295969 4.5
-11.44319 8.2408142 3.1022501 6
-11.363472 8.2723045 3.9022741 7
-11.51298 8.2365379 3.9221516 3
-11.440331 8.2794304 4.7287579 6
-11.386118 8.3500824 5.5422268 3
-11.522072 8.2939224 5.5611525 2
-11.442572 8.3268166 6.3667445 6
-11.377998 8.3836365 7.186666 2
-11.439461 8.3712654 8.0342808 6
-11.470957 8.1408615 0.70594698 1
-11.438608 8.1582222 1.5036038 3
-11.354544 8.2351303 2.3003953 4
-11.404009 8.2376785 3.108705 5
-11.443127 8.2322121 3.9195595 4.5
-11.350252 8.290226 4.726954 5
-11.328867 8.3250847 5.543036 6
-11.324335 8.3846931 6.3607922 4
-11.412361 8.3234024 7.1899385 2
-11.39179 8.3608513 8.0254154 4
-11.318689 8.3894272 9.6966963 3
-11.532803 8.19417 0.56887513 3.5
-11.549425 8.1803074 1.3740414 8
-11.553001 8.2377071 2.9914424 4
-11.537916 8.2686214 4.6102195 7
-11.508892 8.3177395 5.4319415 5
-11.485086 8.3889523 6.2588348 2
-11.552464 8.311182 7.0879874 2
-11.511173 8.3438511 7.9186521 3
-11.495434 8.3830204 9.6153908 2.5
-11.448159 8.168457 0.53897846 3
-11.386582 8.2158813 1.3418803 7
-11.385739 8.2239609 2.1472433 8
-11.401603 8.2565346 2.9586987 7
-11.393638 8.2542725 3.7697253 8
-11.409438 8.286747 4.5808144 6
-11.416686 8.3068237 5.4007797 5
-11.426436 8.3306732 6.230514 3
-11.427941 8.3567467 7.0630541 1
-11.369626 8.1588554 1.6670076 3
-11.379617 8.2010498 2.4785104 2
-11.50044 8.176712 4.104466 1.5
-11.412826 8.139925 0.93786108 3
-11.391244 8.1723728 1.743088 7
-11.363736 8.1964741 2.5517879 6
-11.399182 8.1860752 4.9904814 1
-11.3945 8.2448978 5.8195744 2
-11.350263 8.2602558 6.6435056 3
-11.346629 8.3068676 7.4775014 3
-11.311854 8.3226147 8.3118658 3
-11.387494 8.1948738 0.58383608 4.5
-11.359582 8.2378578 1.3903295 7
-11.488164 8.1396332 2.1873093 1
-11.406114 8.2319565 2.9958329 7
-11.317822 8.3157043 3.8071966 3
-11.437793 8.2339592 3.8027053 4
-11.343635 8.309185 4.6176867 4
-11.454701 8.2142525 4.6115756 1
-11.370402 8.3038406 5.432364 6
-11.395701 8.2960167 6.2528734 6
-11.430717 8.3021202 7.080224 2
-11.341456 8.3852119 7.9097786 3
-11.364234 8.3731461 8.7440815 6
-11.364917 8.328186 9.5808296 6
-11.479173 8.1633606 -0.048423 6
-11.417377 8.2359734 0.76219636 5
-11.546775 8.1707268 0.75339323 5
-11.456101 8.2026291 1.5599711 8
-11.461791 8.2476578 2.3679557 4.5
-11.43879 8.2520905 3.1705258 7
-11.415614 8.2558784 3.9795172 6
-11.481572 8.2759933 4.7901001 2.5
-11.467002 8.2929382 5.60289 7
-11.412004 8.3794289 6.4296961 2
-11.51225 8.2683945 6.4155145 2
-11.444465 8.3361397 7.2451882 6
-11.495719 8.3194885 8.0711908 2
-11.42162 8.3781624 8.9130239 4
-11.427628 8.3199272 0.56098938 1
-11.519474 8.2026367 0.5465765 6
-11.46954 8.2433815 1.3571796 8
-11.435783 8.3090096 2.1661086 5
-11.546652 8.2180328 2.1515863 8
-11.502644 8.2687569 2.9640677 7
-11.45892 8.321476 3.7742736 6
-11.418087 8.3782501 4.5927267 1
-11.534874 8.294014 4.5783563 5
-11.486012 8.3538361 5.3976946 6
-11.509489 8.3674278 7.0297446 6
-11.542604 8.3931541 8.6886473 1
-11.357734 8.1926441 5.3493881 1
-11.467737 8.1343575 0.52791446 5
-11.458771 8.1548004 1.3346971 7
-11.412649 8.2320671 2.1515708 6.5
-11.361547 8.3044167 2.9715352 3
-11.472071 8.2189713 2.9487166 6
-11.397451 8.2732124 3.7680855 4
-11.405333 8.3113403 4.5809407 3
-11.452919 8.2833405 5.385344 4
-11.439993 8.2935295 6.200191 4
-11.44562 8.330265 7.0264459 3
-11.43763 8.3494835 7.8497777 3
-11.434435 8.3747368 8.6848841 3
-11.381908 8.3585281 9.5126247 6
-11.549566 8.1703987 0.4066022 5
-11.536934 8.1946068 1.2132838 7
-11.5285 8.227726 2.0170681 8
-11.524006 8.2553635 2.819361 7
-11.515213 8.278183 3.6244938 7
-11.493217 8.2976875 4.4302807 6
-11.482481 8.3208923 5.2390103 7
-11.485825 8.3644638 6.057332 7
-11.47542 8.3905525 6.8735652 5
-11.548597 8.3721504 9.3311892 4
-11.373166 8.1699696 1.4599106 6
-11.340678 8.2663212 3.0796216 4.5
-11.337501 8.2649212 3.8790815 5
-11.349605 8.2862492 4.6846781 3.5
-11.296681 8.3767033 7.9473214 6
-11.407073 8.141613 -0.049877711 6
-11.390346 8.1743889 0.73670048 5
-11.358476 8.2008362 1.5226353 8
-11.478473 8.191124 2.2932906 3
-11.332456 8.2830925 3.101887 4
-11.447856 8.2071762 3.0837185 3
-11.477857 8.190731 3.8635826 3.5
-11.397553 8.2583046 4.6674824 6
-11.384772 8.3030663 5.4632683 7
-11.352033 8.3193398 6.2633343 5
-11.327094 8.3611717 7.0692081 4
-11.414037 8.3049812 7.8568025 2
-11.399304 8.3476181 8.6735783 2
-11.293105 8.3834534 9.4956398 4
-11.408431 8.1977005 0.39446196 6
-11.387088 8.2564888 1.1907362 6
-11.343053 8.2991524 1.9871587 7
-11.472043 8.2472267 1.9619678 7
-11.361873 8.3021469 2.7707098 7
-11.379418 8.3033791 3.5586534 8
-11.388789 8.3080902 4.3468022 7
-11.365108 8.3708076 5.1556458 3
-11.384095 8.3779221 5.9483485 3
-11.372974 8.1827774 0.39041129 5
-11.371809 8.2298355 1.1811484 6.5
-11.441673 8.2689705 3.5350814 1
-11.340689 8.2986031 4.3458886 6
-11.324696 8.3341904 5.1460524 4
-11.302204 8.360981 5.9512115 6
-11.328939 8.3426056 6.7395296 7
-11.363873 8.3337936 7.5390701 3
-11.384459 8.1576462 -0.20732607 4
-11.329403 8.2670898 3.6766083 8
-11.309458 8.3396072 5.2467976 3
-11.318727 8.3448601 6.0319867 3
-11.320148 8.353199 6.8194146 2
-11.371485 8.1642761 0.11292794 6
-11.354811 8.1844292 0.87508494 5
-11.341766 8.2098274 1.6405582 7
-11.338861 8.2507591 2.4049001 7
-11.330111 8.2838402 3.1734226 5
-11.439222 8.2056007 3.154125 2
-11.369879 8.2709007 3.9297411 4
-11.41387 8.2625084 4.6941614 3
-11.334208 8.3274231 5.4781089 2.5
-11.374733 8.3151741 6.2455487 6
-11.359724 8.3415146 7.0277958 6
-11.354912 8.3814468 7.8196492 6
-11.556744 8.2972336 3.7069988 4
-11.561598 8.3612251 6.7676973 5
-11.357274 8.1781082 0.5800541 6
-11.450515 8.1780701 1.3127162 1
-11.40384 8.21175 2.0544021 5
-11.358846 8.2473335 2.8018816 6
-11.390485 8.2744102 4.2870889 2
-11.352288 8.3201752 5.0404716 6
-11.390019 8.341774 6.5505986 2
-11.339257 8.3698502 7.3173461 6
-11.538962 8.1594162 0.94390088 5
-11.476317 8.2644958 2.421412 2
-11.530547 8.225853 3.1485143 6
-11.529296 8.2103806 3.8814316 7
-11.509793 8.2791862 4.6301117 3.5
-11.516961 8.2742386 5.3724251 6
-11.488347 8.3307152 6.1297302 4
-11.506843 8.3360214 7.643857 6
-11.467839 8.3788834 8.4095306 3
-11.506837 8.3952522 9.9654837 2
-11.550971 8.2094803 0.0036837501 6
-11.542521 8.2225456 1.4546149 7
-11.558631 8.2685852 2.9099371 6
-11.549659 8.2945862 4.3706355 5
-11.560908 8.3346519 5.8478627 5
-11.54713 8.375412 9.6184683 7
-11.517102 8.162014 0.35450381 5
-11.47082 8.202652 1.069657 8
-11.551791 8.199173 1.776316 6
-11.465056 8.2868614 3.2194786 6
-11.412454 8.3179398 3.9452484 4.666667
-11.489991 8.3087349 4.6667166 6
-11.507937 8.326973 5.3907819 3
-11.513282 8.3277168 6.1216145 6
-11.475492 8.3757553 6.8687487 6
-11.502027 8.3939552 8.3612318 3
-11.490254 8.2610683 0.21507639 5
-11.508376 8.2083378 0.91563129 5
-11.463834 8.2913704 1.6245644 4
-11.506421 8.2698116 2.324544 7
-11.505284 8.2947636 3.0319276 4
-11.545192 8.2691803 3.7376637 3.5
-11.523835 8.2681122 4.4487557 6
-11.490129 8.3532543 5.1762614 4
-11.524106 8.3192043 5.8925023 6
-11.535825 8.3596916 6.6181288 3
-11.517337 8.3610477 7.3460631 6
-11.44831 8.1864128 0.15103726 5
-11.424752 8.201437 0.83850485 4
-11.546313 8.1546116 0.83319396 1
-11.46078 8.1913509 1.5281399 7
-11.404574 8.2758675 2.2239172 7
-11.509013 8.2073956 2.2184155 4
-11.435479 8.2596855 2.9131343 7
-11.428956 8.2960625 3.6097867 4
-11.458428 8.2777348 4.3056002 3
-11.440225 8.299366 5.0082078 6
-11.436355 8.3386135 5.7195621 3.5
-11.412143 8.3525448 6.4302325 6
-11.451758 8.3461781 7.1403136 4
-11.48419 8.156929 -0.22967532 6
-11.464706 8.2117119 0.45523867 4
-11.432503 8.2512817 1.1367966 7
-11.535431 8.1825867 1.135049 7
-11.442875 8.2456684 1.8220909 6
-11.460644 8.259985 2.5072253 6
-11.481234 8.2668896 3.193532 7
-11.370489 8.3084927 3.8796663 5
-11.435867 8.3706074 4.5809469 3
-11.522125 8.2800541 4.5770116 4
-11.49403 8.3251972 5.2760472 3
-11.452785 8.3544102 5.9779329 7
-11.47184 8.3591537 6.6856279 6
-11.500849 8.3761311 7.3953738 7
-11.469734 8.3906517 9.5620251 5
-11.409844 8.2237453 0.33594584 5
-11.505971 8.1495781 0.32641006 5
-11.414613 8.2415657 1.0158923 4
-11.47041 8.2253857 1.6946217 7
-11.452338 8.2159824 2.3733313 7
-11.518476 8.2121239 3.0568085 3
-11.448882 8.247118 3.745507 7
-11.458402 8.2713203 4.4347739 3
-11.452596 8.2768917 5.1251626 7
-11.409776 8.334177 5.8275647 5
-11.505807 8.2569275 5.8179865 2
-11.45762 8.3075008 6.5239458 7
-11.413478 8.3629456 7.2377315 5
-11.455464 8.3281155 7.9437108 4
-11.415059 8.3886776 8.6639013 5
-11.427199 8.2000809 0.49047792 5
-11.432143 8.2228737 1.1625912 4
-11.416892 8.2213593 1.8352844 6.5
-11.412036 8.2320862 2.5111573 6
-11.416205 8.2533627 3.190624 4
-11.455647 8.2221642 3.8684604 4
-11.467574 8.2520828 4.5567842 2
-11.408538 8.2916737 5.2429509 6
-11.366786 8.3511467 5.9417648 5
-11.460725 8.2747955 5.9327984 2
-11.403434 8.3147259 6.6359015 6
-11.350484 8.3701477 7.3450899 4
-11.421988 8.364542 8.0537395 4
-11.539012 8.1709404 0.2218191 6
-11.481399 8.2270737 0.89044434 5
-11.549727 8.1955318 2.222384 7
-11.549951 8.227396 2.8932261 4
-11.495059 8.2874413 3.569658 4
-11.53247 8.2699718 4.2428818 3.5
-11.519834 8.2865009 4.9225836 7
-11.518418 8.3160362 5.6101236 3.5
-11.504045 8.3300877 6.2986403 6
-11.513787 8.3730431 6.9926338 3
-11.489793 8.3753662 7.6873312 6
-11.533252 8.362812 8.3940296 4
-11.458878 8.1673126 -0.094826892 6
-11.480896 8.1629868 0.56207126 5
-11.412746 8.2361717 1.22724 7
-11.516325 8.1740818 1.2243811 7
-11.427746 8.2338715 1.8874278 6
-11.425863 8.2935963 2.5524712 3.5
-11.442608 8.2830276 3.2159653 4.5
-11.520645 8.2518692 3.8836048 4.333333
-11.43475 8.3052864 4.5555305 6
-11.458105 8.3020687 5.232091 7
-11.392118 8.3789349 5.9165039 3
-11.5019 8.3226624 5.9173236 4
-11.415598 8.3759747 6.595655 6
-11.428219 8.3597698 7.2815857 6
-11.470465 8.3780212 7.985774 4
-11.371034 8.1852856 0.96552396 5
-11.446916 8.1559467 1.6187052 3
-11.475556 8.1520557 2.2744401 0
-11.388598 8.1952705 2.934 5
-11.381764 8.2408733 3.5990992 3.5
-11.34393 8.2504044 4.2626657 6
-11.375854 8.2499752 4.9332247 5
-11.361146 8.2862167 5.60952 3
-11.323602 8.2961006 6.278717 7
-11.360404 8.3009262 6.9628701 5
-11.292459 8.3661823 7.6566114 4
-11.297654 8.3436203 8.345582 5
-11.337995 8.3416748 9.0463161 2
-11.357139 8.3246117 9.7496576 5
-11.427591 8.1787338 0.45221946 5
-11.364149 8.2308102 1.1063585 3.5
-11.518808 8.1416702 1.0981283 2
-11.42832 8.1626625 1.7534107 8
-11.369299 8.22048 2.4077418 8
-11.481543 8.1710072 2.4039609 6
-11.396553 8.1989346 3.0611789 7
-11.350899 8.2827969 3.7239597 3
-11.437572 8.203207 3.717319 6
-11.394001 8.2266846 5.0353718 6
-11.345314 8.2976379 5.7078295 3
-11.445705 8.2328396 5.7040839 4
-11.373569 8.2767754 6.3756957 6
-11.479286 8.2177296 6.37359 1
-11.399101 8.2522717 7.0488858 6
-11.346558 8.3189373 7.7368245 2
-11.374649 8.2973671 8.4152365 6
-11.406935 8.2797604 9.1060839 6
-11.543928 8.3000965 2.7743282 3
-11.394119 8.1924133 -0.19574882 5
-11.39835 8.2190742 0.45198822 5
-11.38829 8.2403584 1.0995078 7
-11.416168 8.2106552 1.7377868 7
-11.425707 8.2453346 2.3898871 7
-11.419069 8.2630997 3.0395553 7
-11.402826 8.2699451 3.6918783 3
-11.413643 8.3089027 4.3474479 6
-11.401676 8.3214149 5.0061421 6
-11.395124 8.3505192 5.668921 6
-11.398443 8.3814888 6.3356433 7
-11.534823 8.2218857 0.28228128 4
-11.535558 8.2398834 1.5444018 6
-11.531131 8.2391548 2.1743035 7
-11.542825 8.2599602 3.4436975 5
-11.531171 8.3385029 4.7363982 3.5
-11.521281 8.330389 5.3811722 6
-11.538293 8.3525562 6.0306001 4
-11.539487 8.3561859 6.6854639 6
-11.553597 8.3732052 7.3525009 2.5
-11.544599 8.3737526 8.018198 5
-11.4423 8.1776676 0.065851502 5.5
-11.419118 8.1979885 0.69787925 4.5
-11.408093 8.23279 1.3273158 5.5
-11.468694 8.1802044 1.9465805 5.5
-11.45696 8.223444 2.5814939 4.5
-11.481292 8.2142963 3.2088671 6
-11.417033 8.2737808 3.8528099 4
-11.485915 8.229702 4.4801326 3
-11.41826 8.2850628 5.1307578 6
-11.518699 8.2287292 5.1197286 2
-11.48964 8.2424774 5.7676315 3
-11.427411 8.3031254 6.4285841 3
-11.453197 8.2939243 7.0752087 7
-11.42962 8.3126583 7.7366943 6
-11.416137 8.3413029 8.410408 6
-11.402688 8.3790436 9.0914536 4
-11.339017 8.3419418 9.7512989 5
-11.377829 8.2125111 4.0048804 5
-11.408943 8.172905 0.032778751 6
-11.432655 8.1793232 0.64213634 6
-11.371794 8.2545948 1.266345 7
-11.440977 8.1691284 1.2536348 8
-11.415255 8.2030277 1.8688213 7
-11.44408 8.2150936 2.4845808 4.5
-11.377251 8.2944641 3.1119459 5
-11.463697 8.2266293 3.1005597 4
-11.355671 8.3336372 3.7345233 3
-11.423557 8.2455101 3.7202625 6
-11.389345 8.2707653 4.3435779 7
-11.37974 8.3224964 4.9759603 5
-11.469746 8.2576427 4.9655581 2
-11.433832 8.2806454 5.5967503 4
-11.39546 8.3005867 6.2324667 7
-11.378544 8.3436203 6.8781118 6
-11.455675 8.325695 7.5153961 2
-11.389709 8.3747807 8.8267155 6
-11.322754 8.3708572 9.4802065 5
-11.477272 8.167738 -0.11242147 5.5
-11.444752 8.2007408 0.49959618 5
-11.505766 8.1860943 1.1008511 5
-11.464687 8.2114792 1.7121072 7
-11.441858 8.2566719 2.3276248 6.5
-11.438658 8.24473 2.9344063 7
-11.4993 8.2213402 3.5425177 4
-11.36211 8.2520695 4.1567369 6.666667
-11.486509 8.2704926 4.7778811 3.5
-11.415443 8.3556805 5.4087806 3
-11.499235 8.2848129 5.3986349 3
-11.465464 8.3210487 6.0249891 7
-11.429062 8.3547268 6.655189 5
-11.490881 8.3316841 7.2850118 4
-11.451912 8.3624535 7.9255095 6
-11.374769 8.1803932 0.92763686 4
-11.385805 8.1749077 1.524039 9
-11.380032 8.2123909 2.7276735 4.5
-11.35186 8.2434597 3.336416 5
-11.346504 8.229866 3.9377956 4
-11.378719 8.2474632 4.5464582 4
-11.348349 8.2770786 5.1605392 4
-11.322422 8.3113213 5.7802711 5
-11.323425 8.2951965 6.3951454 6
-11.401442 8.2809505 7.0207329 2
-11.36434 8.3025627 7.6526384 4
-11.335659 8.333725 8.2873449 6
-11.311737 8.368988 8.9343357 6
-11.426754 8.3792171 10.256472 1.5
-11.461308 8.1820259 -0.21724629 6
-11.491697 8.1891422 0.37477708 5
-11.468523 8.2251968 0.97256827 6.5
-11.423285 8.3063087 1.5775888 4
-11.482496 8.2165585 1.5642314 7
-11.45528 8.2409306 2.1645901 8
-11.556376 8.1940098 2.1546438 5
-11.453474 8.2926884 2.766417 7
-11.549467 8.2400112 2.7564547 4
-11.512623 8.2554188 3.3585169 7
-11.327265 8.3466969 3.9714682 3.5
-11.484655 8.2810059 3.960223 7
-11.507084 8.2819252 4.5640788 4
-11.526047 8.2881355 5.1698937 3
-11.502611 8.3190022 5.7825727 5
-11.484921 8.3559723 6.4013672 6
-11.532209 8.3599319 7.6451368 2
-11.407303 8.3948498 9.5427361 7
-11.362814 8.2299681 0.13275364 5
-11.373154 8.2630739 1.3038323 7
-11.409801 8.2332125 1.8878741 8
-11.470009 8.2276068 2.4727871 6
-11.41127 8.2501841 3.0650434 7
-11.435734 8.2835436 3.6577356 5.5
-11.3978 8.3283911 4.2574768 5
-11.437214 8.3098822 4.8508496 4
-11.443459 8.3248091 5.451086 7
-11.440739 8.330409 6.0535259 3
-11.413349 8.3871756 6.669313 3
-11.399942 8.2146749 0.26529869 5
-11.484213 8.1538305 0.2536746 5
-11.44813 8.1699686 0.84000385 6
-11.424011 8.1991186 1.4242831 9
-11.465933 8.2216616 2.0079761 5.5
-11.449266 8.2593946 2.5945909 5.5
-11.456921 8.2476206 3.1791651 6
-11.471302 8.2511435 3.7657237 4.5
-11.502117 8.2631559 4.3561435 2
-11.430418 8.3199682 4.9569473 4.5
-11.449015 8.3192949 5.5534735 6
-11.423334 8.3481455 6.158761 7
-11.485735 8.3160887 6.7614317 1
-11.466539 8.3508654 7.3793192 4
-11.445139 8.3840628 7.9969778 6
-11.357632 8.2011843 2.7134757 3
-11.355762 8.2608175 6.8617058 1
-11.35924 8.2922907 7.4785676 2
-11.337692 8.3319197 8.7275867 1
-11.352206 8.1889868 -0.020817891 6
-11.344249 8.2377329 2.3275287 8
-11.400046 8.2459574 2.9100683 1
-11.352021 8.2838812 3.5134461 4
-11.490541 8.2250586 4.077457 0.5
-11.333257 8.2949724 4.7056084 3
-11.334411 8.3231249 5.9192686 2
-11.395746 8.1767235 -0.070716567 5
-11.431959 8.1863613 0.49838835 2
-11.34267 8.2607765 3.388942 6
-11.359154 8.25173 3.9655073 5.333333
-11.34306 8.2799454 4.556571 3
-11.332493 8.3127747 5.1539512 7
-11.341949 8.2949867 5.7407231 3
-11.328032 8.335907 7.553946 2
-11.296429 8.3826714 8.7999277 4
-11.393255 8.1631451 -0.059479039 5
-11.369356 8.2265892 1.6467553 6
-11.350594 8.2579784 2.219871 6.5
-11.476986 8.1754818 2.1919801 0
-11.419628 8.2375259 2.7774701 4
-11.351536 8.2889309 3.3643973 6
-11.44128 8.2389145 3.3472674 2
-11.363216 8.3280869 4.5250521 5
-11.42675 8.2996044 5.0972476 3
-11.362238 8.3539066 5.6939964 7
-11.381218 8.3496456 6.2817779 6
-11.40966 8.3526859 6.8800502 3
-11.457855 8.1750031 0.47871727 5
-11.457579 8.1917953 1.0368114 6
-11.548109 8.1427422 1.0227144 7
-11.451942 8.2115726 1.5946517 7
-11.542763 8.1626492 1.5811183 7
-11.456287 8.233429 2.1531882 4.666667
-11.499748 8.2246037 2.707325 5
-11.45228 8.264576 3.2771552 6
-11.526512 8.1996365 3.2626891 3
-11.464624 8.2256641 3.8325937 5.5
-11.49317 8.2688141 4.4092822 4.5
-11.483986 8.2761173 4.9822025 5
-11.522417 8.2610321 5.5494781 3
-11.51145 8.265667 6.1289535 3
-11.52416 8.291256 6.722692 2
-11.508198 8.2970009 7.3135686 1
-11.446957 8.3807945 7.9272861 5
-11.441647 8.3875504 8.5299692 5
-11.441847 8.3973408 9.1462975 5
-11.412433 8.203434 -0.090289228 6
-11.403049 8.1943111 0.45701778 5.5
-11.341992 8.3334351 1.0358527 1
-11.417573 8.2067795 1.0085853 6.5
-11.422496 8.2182045 1.5599501 6.5
-11.398356 8.2612686 2.1200366 5.333333
-11.41001 8.2716599 2.6740792 3.333333
-11.446229 8.2384872 3.2214246 3.5
-11.411069 8.270298 3.7881653 3.666667
-11.426467 8.2827225 4.353476 6
-11.402862 8.3244514 4.929903 5
-11.368772 8.3571072 5.5031657 6
-11.371552 8.3562031 6.0761914 6
-11.381137 8.3601475 6.6584373 6
-11.385047 8.3656445 7.244679 5
-11.41183 8.3772526 7.8376079 4
-11.413331 8.3509426 9.6411018 6
-11.414438 8.1857548 -0.16213879 6
-11.410151 8.1932011 0.38254055 5
-11.381681 8.2508755 0.93473184 6
-11.440569 8.1755409 0.91883373 6
-11.414444 8.2282944 1.4706994 7.5
-11.413647 8.2394619 2.0161948 7
-11.432262 8.2680435 2.5666127 6
-11.464964 8.2442913 3.1098866 5
-11.426079 8.2841015 3.6717248 6
-11.42905 8.2969894 4.2297797 4.5
-11.433506 8.3117962 4.7870378 5
-11.398642 8.3541756 5.3585048 6
-11.484579 8.3105316 5.9186296 0
-11.395714 8.3741417 6.5043054 6
-11.39456 8.37286 7.0785336 5
-11.548632 8.2393293 0.093318023 7
-11.534361 8.1982889 0.62296957 5.5
-11.500214 8.2665968 1.1670562 6
-11.541365 8.211133 1.6935147 6
-11.509819 8.3451834 2.2518344 2
-11.550369 8.253932 2.2369888 7
-11.554983 8.2968206 3.8697402 6.5
-11.539389 8.3483057 4.9826813 4.5
-11.536152 8.3447886 6.0977921 5
-11.525246 8.3655615 6.6669374 5
-11.523657 8.3930597 7.2491078 5
-11.496918 8.1675072 -0.093240403 6
-11.528477 8.1598492 0.43344536 3.5
-11.525778 8.1917915 0.96635962 4.5
-11.441339 8.3327122 1.5197985 2
-11.463638 8.3173428 2.0476389 3
-11.539051 8.1958008 2.0260148 7
-11.479279 8.2954845 2.5771916 5
-11.54562 8.2287121 2.564302 6
-11.533152 8.2444744 3.103034 6
-11.464506 8.3357449 3.6598206 4
-11.516554 8.2560463 3.6446507 7
-11.496183 8.3271236 4.2003379 4.5
-11.48877 8.3471107 4.7450366 4.5
-11.497635 8.317112 5.2867637 7
-11.499098 8.3426781 5.8475981 6
-11.48074 8.3572197 6.407928 6
-11.488428 8.3806896 6.9750371 5
-11.522636 8.3737907 9.2931633 4
-11.356625 8.2543755 0.35493329 4
-11.414726 8.1826134 0.34208587 5
-11.38064 8.2496281 0.87339604 3
-11.49362 8.1643333 0.85513693 3
-11.368994 8.2682152 1.3975939 5
-11.489857 8.1897163 1.3803376 7
-11.361286 8.3519478 1.933015 1
-11.419754 8.2183342 1.9106334 6
-11.419918 8.246851 2.440197 6
-11.442686 8.2332954 2.9649606 7
-11.403568 8.2882519 3.5063424 5
-11.450674 8.2537155 4.0336938 4.666667
-11.37331 8.3788013 4.5902634 1
-11.450127 8.2606068 4.5672793 3.5
-11.404247 8.3087482 5.1158109 6
-11.491055 8.2612686 5.1085515 1
-11.469416 8.267746 5.6557159 2
-11.4517 8.2842026 6.2079468 2
-11.433784 8.2863789 6.7589288 2
-11.454306 8.3283806 7.3302293 3
-11.402475 8.3892059 8.4828568 2.5
-11.437275 8.3846931 9.068799 4
-11.364411 8.1921368 0.53622532 1
-11.3917 8.2181454 1.581812 1
-11.325395 8.2685051 4.2297254 4
-11.314359 8.3626766 6.9725776 5
-11.317815 8.3516216 7.5263758 2
-11.397591 8.1968279 0.19349881 6
-11.405483 8.1928854 0.70605731 5
-11.362495 8.2699156 1.2386751 4.5
-11.454231 8.1646547 1.2118518 7
-11.404284 8.2385626 1.7469708 4.666667
-11.437998 8.1998777 2.2563987 5.5
-11.36978 8.3098116 2.8056099 4
-11.498386 8.1832209 2.7722895 0
-11.406439 8.2725058 3.3206429 5.5
-11.487497 8.2144346 3.8278272 3
-11.386848 8.2953348 4.379077 6
-11.459425 8.2390566 4.3642664 3
-11.442263 8.2682142 4.9080191 3.5
-11.399027 8.2877874 5.4513249 6
-11.430836 8.2954836 5.9949493 5
-11.460794 8.3068228 6.5464396 2
-11.391594 8.3494978 7.1135044 6
-11.409369 8.3478537 7.6725216 5
-11.491535 8.3722353 0.1759747 10
-11.53005 8.1159163 0.12376788 6
-11.500181 8.1738596 0.65408146 5
-11.474459 8.2425604 1.1850965 5
-11.515547 8.1882658 1.6839859 7
-11.473831 8.2372427 2.2151601 5
-11.544825 8.206975 2.7217152 3.666667
-11.528212 8.2184496 3.2475522 5
-11.476908 8.2578802 3.7860491 4.5
-11.510834 8.2525644 4.3116035 6
-11.525711 8.2899485 4.8494682 0.5
-11.535004 8.262557 5.3765974 7
-11.524824 8.3024778 6.477313 5
-11.475414 8.3329992 7.0349302 5
-11.517857 8.3290968 7.5908298 5
-11.475641 8.3679819 8.169651 5
-11.52014 8.3627195 8.7399693 4
-11.455147 8.3856993 9.3252974 4
-11.514276 8.1455765 0.48672426 5
-11.480922 8.1795006 0.9944694 3.5
-11.443671 8.2098408 1.5054423 5
-11.515643 8.1552658 1.4913977 8
-11.486651 8.1992493 2.0034959 6.5
-11.420629 8.3211441 2.533226 1
-11.497512 8.2129211 2.5092602 5
-11.427135 8.3313541 3.0414143 2
-11.44815 8.2340183 3.0208373 7
-11.536321 8.1922512 3.0100636 3
-11.413505 8.2709789 4.0494046 5
-11.425889 8.3455868 5.1033521 2
-11.466676 8.2639484 5.0837679 6
-11.449763 8.3112259 5.6144013 5
-11.445916 8.3101749 6.1409793 5.5
-11.464534 8.3265533 6.6815033 5
-11.496469 8.3018646 7.2151108 3
-11.426867 8.3540096 7.7670121 5
-11.43014 8.3557262 8.3168278 5
-11.436826 8.3581848 8.8789539 6
-11.535363 8.3197002 9.4419556 1
-11.535587 8.335371 5.4293327 4.5
-11.544247 8.324728 5.9460883 0
-11.549122 8.354948 6.4751658 5
-11.531097 8.3720779 7.0050349 5
-11.519907 8.3933716 7.5470433 5
-11.500751 8.1913242 0.24230717 5
-11.534267 8.1871986 0.7044403 5
-11.434422 8.2901459 1.1748735 7
-11.448782 8.2710781 1.6395499 6
-11.430857 8.3319302 2.11169 6
-11.45986 8.2494068 2.1049838 8
-11.476961 8.2849236 2.5742688 7
-11.486187 8.3140411 3.0490205 3.666667
-11.465633 8.3197918 3.5241973 5.5
-11.480593 8.3061581 4.0009708 5
-11.478708 8.3413887 4.9679837 6
-11.469948 8.375658 5.9564238 6
-11.359203 8.1901302 3.6350765 3
-11.503551 8.1341209 4.1147385 5.666667
-11.322027 8.2808571 6.0397534 4
-11.308653 8.3223133 7.0367975 3.5
-11.508495 8.1674185 -0.18541731 5
-11.482296 8.2247143 0.26608932 3.5
-11.437071 8.2676764 0.718431 4
-11.441666 8.2974405 1.1712019 5.5
-11.463308 8.2386141 1.6206905 7
-11.506239 8.2462368 2.0771787 5
-11.498941 8.2669563 2.5311952 6.5
-11.452888 8.359417 2.9957428 4
-11.516891 8.2556992 2.989059 3.5
-11.465746 8.3440161 3.4578567 6
-11.517979 8.2821054 3.4548969 6
-11.396008 8.3221979 3.9124589 6.5
-11.469522 8.3470755 4.3882885 5.5
-11.49412 8.3401146 4.8600345 7
-11.486641 8.3591709 5.3399644 7
-11.537834 8.3509693 6.3123016 1
-11.378371 8.2106915 0.01202035 5
-11.431985 8.1518059 0.0070372201 4
-11.439988 8.1718922 0.4488731 3.5
-11.425721 8.1755142 0.89137685 5
-11.368966 8.2461147 1.3402331 6.5
-11.473886 8.1758022 1.3353392 5
-11.417014 8.1968994 1.7821426 7
-11.446202 8.1828995 2.2288198 7
-11.402514 8.2137203 2.6754062 7
-11.393506 8.2698479 3.1327355 3
-11.373298 8.2678165 3.5865197 6
-11.352654 8.2375946 4.0368605 5
-11.362605 8.2855301 4.5038366 6
-11.384799 8.2650337 4.9660034 4.5
-11.354506 8.3036518 5.4402294 6.5
-11.349744 8.3117752 5.9128485 6
-11.419929 8.2652721 5.914444 3
-11.324193 8.3586159 6.3991432 4
-11.37403 8.1395111 0.1529932 4.333333
-11.409955 8.128252 0.58968258 4
-11.397077 8.1297894 1.0296301 4
-11.438226 8.1224098 1.4691689 4
-11.394856 8.1550865 1.9182972 5
-11.357064 8.1867809 2.3675942 8
-11.367187 8.2052956 2.8161917 4
-11.388871 8.183609 3.2599339 4
-11.360572 8.2219143 3.7184167 4
-11.320819 8.3001652 4.1898527 5
-11.378968 8.1969967 4.1681256 4.5
-11.341502 8.2280121 4.6311555 6
-11.415208 8.1847973 4.6249747 2
-11.324086 8.2743416 5.0989165 4.5
-11.419286 8.1979599 5.0862613 2
-11.335998 8.2435646 5.5561295 7
-11.413203 8.2026157 5.5519681 1
-11.313779 8.3335705 6.0505099 2
-11.321568 8.3038521 6.5178146 4
-11.317315 8.3030453 6.9951882 4
-11.308568 8.352869 7.4945698 2
-11.312099 8.3609276 7.9933276 2
-11.299516 8.3568726 8.4878263 3
-11.299928 8.3662338 9.000596 3
-11.435816 8.2521572 0.059567619 6
-11.458164 8.2010326 0.48490393 5
-11.467758 8.2406712 0.92080808 3.666667
-11.479099 8.2291107 1.3508098 7
-11.458824 8.2420025 1.7862976 6
-11.476709 8.2347889 2.2204685 4.333333
-11.484249 8.2674112 2.6636138 4
-11.496702 8.2556591 3.1028118 3.5
-11.431101 8.3778601 3.5666425 3
-11.483402 8.2726707 3.5485961 4
-11.437323 8.313961 3.9962072 7
-11.326839 8.3287563 3.9926095 5
-11.434914 8.3384418 4.4492869 6
-11.494553 8.2862005 4.44241 5
-11.485481 8.3050413 4.9000616 6
-11.42288 8.3858519 5.369688 5
-11.456921 8.3345261 5.8197894 6
-11.449635 8.3535872 6.2881513 7
-11.43788 8.3681574 6.763917 6
-11.452491 8.3005676 -0.049320031 4.5
-11.472842 8.2802668 0.36726284 5
-11.483163 8.2989531 0.78996652 3.666667
-11.470405 8.3065319 1.2111064 7
-11.482162 8.3265104 1.6341616 5.666667
-11.48351 8.3390026 2.0583003 4
-11.503341 8.3180428 2.4818499 4
-11.495925 8.3352289 3.3412707 4
-11.463517 8.3699198 3.7761886 6
-11.483031 8.3591681 4.6460171 6
-11.524291 8.3521996 5.0939875 2
-11.479304 8.3825207 5.5398674 6
-11.378818 8.1633663 1.9005407 6
-11.401137 8.1322355 2.3123176 5
-11.396604 8.1730347 2.7353489 3
-11.336373 8.2656879 3.1666212 2
-11.384665 8.1628876 3.1532831 4.5
-11.34508 8.2244215 3.5831378 6
-11.392432 8.1665974 3.5768719 5
-11.475217 8.1464949 4.0066648 3.666667
-11.340001 8.2627211 4.4447064 3
-11.408441 8.1736097 4.4347577 4
-11.362731 8.2310123 4.869504 6
-11.396399 8.2063274 5.3038344 4
-11.408753 8.2120161 5.7484355 5
-11.370553 8.2328444 6.191998 6
-11.34656 8.2534513 6.6402111 6
-11.408456 8.2473373 7.1034961 3
-11.339606 8.3329601 7.5760083 5
-11.315982 8.3579493 8.0435104 0
-11.340203 8.3280878 8.5163708 5
-11.543894 8.2027025 0.066498347 2
-11.456423 8.229805 0.073948458 6
-11.518745 8.2201061 0.47787887 4
-11.406294 8.3096323 0.89734364 3.5
-11.469862 8.2565708 1.2985592 5
-11.438738 8.3199911 1.7151879 4
-11.438004 8.3107357 2.1229475 6.666667
-11.438454 8.347085 2.5393562 4
-11.462027 8.309927 2.9479022 4
-11.514744 8.2931614 3.3639455 2
-11.429487 8.3226194 3.3641372 6
-11.450567 8.3281002 3.785718 6
-11.408945 8.3789892 4.2140017 6
-11.462309 8.3267899 4.2083492 6
-11.427441 8.3828526 4.6378822 6
-11.502678 8.335762 5.0642371 2
-11.446396 8.3755579 5.5005436 5
-11.447727 8.3706474 5.9365077 6
-11.425394 8.3839798 6.3759613 6
-11.561897 8.3109999 0.15449215 2
-11.481434 8.3420019 0.157138 6
-11.557795 8.3295717 0.55563748 3.5
-11.534807 8.3352709 0.95397913 5
-11.559483 8.3303232 1.3553492 3
-11.561659 8.3582363 2.5637879 1
-11.369356 8.2405348 -0.055551399 5.5
-11.364866 8.2399864 0.3337726 5.5
-11.334337 8.3504744 0.72498709 3
-11.371132 8.247077 0.72447616 5
-11.331764 8.3512516 1.1168389 5
-11.375078 8.2525158 1.1162351 5.5
-11.330042 8.3526459 1.5106246 5
-11.379868 8.2585564 1.5102063 7.5
-11.329166 8.3546543 1.9054663 6
-11.378984 8.2606087 1.9048036 6.5
-11.319675 8.3504791 2.2972584 5
-11.406502 8.239666 2.2987375 3.666667
-11.391272 8.2746611 2.6969478 5
-11.402081 8.2850447 3.1007655 4.5
-11.34037 8.378149 3.5039487 5
-11.396736 8.2887726 3.5035775 4
-11.438311 8.2730236 3.9124362 5.666667
-11.334932 8.3748693 4.3151031 5
-11.366137 8.3108463 4.3131752 5
-11.340378 8.381547 4.7317543 6
-11.377987 8.3220873 4.7312984 6
-11.33688 8.381813 5.1464286 5
-11.371311 8.3201256 5.1449947 6
-11.380602 8.3343897 5.5716629 6
-11.342028 8.2431355 0.94168025 6.75
-11.36602 8.1550961 2.6906676 6
-11.350319 8.1865501 3.0865147 6
-11.354992 8.1807194 3.4821789 6
-11.492186 8.1039104 3.8921826 4.5
-11.362652 8.2193871 4.2928295 4.333333
-11.370453 8.2203293 4.7004733 3.666667
-11.352404 8.2498093 5.1148353 4.5
-11.41869 8.2435398 0.37833625 4.75
-11.421553 8.253828 0.94637483 4.5
-11.369692 8.3477459 1.3265698 6
-11.427042 8.2632408 1.3276476 7.5
-11.363207 8.3486538 1.7078776 6
-11.4254 8.2676582 1.7094246 7
-11.361248 8.3527584 2.0876501 6
-11.394079 8.2927017 2.0876441 7
-11.43837 8.2879562 2.4760396 5
-11.436071 8.2919884 2.8646095 5
-11.42922 8.2974625 3.2538087 3.5
-11.367123 8.3794594 3.6426098 5
-11.399994 8.3194809 3.6420472 6
-11.528681 8.2884674 4.0539918 4.5
-11.40287 8.3330975 4.4385977 5
