# .PCD v0.7 - Point Cloud Data file format
VERSION 0.7
FIELDS x y z intensity
SIZE 4 4 4 4
TYPE F F F F
COUNT 1 1 1 1
WIDTH 941
HEIGHT 1
VIEWPOINT 0 0 0 1 0 0 0
POINTS 941
DATA ascii
-42.702053 -10.895143 -0.23911619 32
-42.730965 -10.720709 -0.21099406 29
-42.663368 -10.871265 0.35413051 42
-42.676624 -10.77708 0.08962822 255
-42.781715 -10.738768 0.36050481 48
-42.623219 -10.784422 -0.25554889 72
-42.813679 -10.763985 -0.40570343 42
-42.614346 -10.788833 0.02640176 73
-42.787514 -10.74144 -0.38628954 61
-42.647976 -10.765757 0.1422984 132
-42.751968 -10.789448 -0.17714721 74
-42.710114 -10.785936 -0.3758077 74
-42.764969 -10.746336 0.14467043 255
-42.618111 -10.784737 0.2005761 170
-42.761208 -10.767452 0.36206043 83
-42.777752 -10.756171 0.091957986 255
-42.764393 -10.795105 -0.44169176 66
-42.746017 -10.776283 -0.16713309 87
-42.750984 -10.791897 0.03403765 174.5
-42.688141 -10.83341 0.24676386 96
-42.721802 -10.689232 0.22806978 255
-42.706764 -10.835638 0.42897415 19
-42.733101 -10.727411 -0.37122351 84
-42.731785 -10.748103 0.14112753 255
-42.692463 -10.720192 -0.35851246 75
-42.67432 -10.739665 -0.22900778 84
-42.666039 -10.745399 0.14901477 216
-42.649254 -10.776281 0.40085125 38
-42.773945 -10.773865 0.14709154 107.5
-42.746395 -10.797279 0.33575353 65
-42.678684 -10.813982 0.39148945 88.5
-42.648121 -10.818029 0.41214043 71
-42.702766 -10.802693 0.41297495 85
-42.784245 -10.797244 0.38524652 1
-42.771965 -10.748065 0.49741715 57
-42.692028 -10.818073 0.43232185 1
-42.707905 -10.78714 0.2207244 255
-42.794716 -10.733296 -0.20616788 23
-42.799446 -10.743399 -0.10019189 24
-42.723946 -10.77018 0.4473353 77
-42.777912 -10.739628 0.480432 0
-42.780006 -10.717806 -0.33849818 76
-42.760216 -10.767395 0.51172864 0
-42.765491 -10.777124 -0.31964874 3
-42.778736 -10.785544 -0.081723027 54
-42.790421 -10.789425 0.12171909 83.5
-42.828865 -10.82678 0.31460655 24.5
-42.739956 -10.804834 0.072245963 6
-42.777424 -10.801611 0.23804796 66.666664
-42.766277 -10.667012 0.39430904 49
-42.744335 -10.827139 0.48408762 9
-42.626255 -10.809813 -0.054224189 22
-42.613068 -10.80814 0.051860869 79
-42.616928 -10.813068 0.20531699 83.5
-42.757862 -10.859376 0.24650306 31
-42.690285 -10.795999 0.31982815 62
-42.65134 -10.819031 0.48031357 40
-42.842918 -10.769955 0.05017221 13.5
-42.809761 -10.746414 0.48177409 76
-42.765408 -10.814728 0.19092757 51
-42.754944 -10.829389 0.45957243 50
-42.697029 -10.800739 0.093351193 0
-42.817898 -10.832142 0.233338 50.5
-42.722015 -10.781113 0.31138873 56
-42.750641 -10.766306 0.47176358 40.5
-42.730225 -10.80139 -0.02074605 28
-42.772594 -10.812271 0.20979619 67.333336
-42.738895 -10.748855 0.42709297 24
-42.772701 -10.815397 0.07140857 14
-42.77483 -10.80821 0.23779756 127.5
-42.709896 -10.826677 0.41018927 0
-42.865475 -10.802589 -0.18189096 2
-42.8839 -10.796461 0.0113942 9
-42.604263 -10.776841 -0.04876757 6
-42.738777 -10.804399 0.41688278 31
-42.806068 -10.705114 -0.19169772 14
-42.78767 -10.79414 0.45493495 6
-42.82328 -10.761614 0.43742734 0
-42.665955 -10.733697 -0.39180666 0
-42.811321 -10.738304 -0.25470585 37
-42.620823 -10.75861 0.093228757 255
-42.81599 -10.78987 -0.38555443 62
-42.810188 -10.714659 -0.18737912 63
-42.832741 -10.827075 -0.23067069 0
-42.860802 -10.770844 0.00066656002 8.5
-42.765785 -10.752836 -0.35609037 0
-42.812153 -10.851329 -0.15305847 24
-42.78273 -10.736819 0.38359457 43
-42.783035 -10.759505 0.018314719 3
-42.812153 -10.753642 0.16818208 255
-42.807743 -10.754541 0.46132362 28
-42.812046 -10.744349 0.10851038 2
-42.784645 -10.861602 0.38294733 3
-42.842274 -10.786355 -0.10574102 26
-42.836479 -10.805432 0.19946599 49
-42.690777 -10.714917 -0.39003694 0
-42.71027 -10.727989 -0.21802652 1
-42.840611 -10.809355 -0.041808959 52
-42.844234 -10.791424 0.12587595 255
-42.853031 -10.803401 0.29188752 80
-42.821411 -10.797192 -0.31378937 72
-42.803459 -10.75194 -0.14161235 42
-42.850742 -10.789668 0.19635618 255
-42.815598 -10.772689 0.36432731 43
-42.829628 -10.77234 -0.25278986 62
-42.848244 -10.817894 -0.08246702 73
-42.852066 -10.802808 0.089019887 255
-42.836761 -10.790337 0.34386697 119.5
-42.834393 -10.780775 -0.29494786 0
-42.871147 -10.798174 -0.26402301 17
-42.829285 -10.794071 -0.42690265 41
-42.750473 -10.813675 -0.24324358 20
-42.779984 -10.771312 -0.25074595 11
-42.798676 -10.824668 -0.32204032 14
-42.708794 -10.801125 0.22323489 1
-42.62254 -10.802986 -0.12099969 32
-42.659233 -10.870132 -0.19658595 24
-42.626167 -10.786875 0.37935817 56
-42.657265 -10.885519 0.28773567 255
-42.675697 -10.838971 -0.26396608 53
-42.740776 -10.67935 -0.12370235 52
-42.804077 -10.827393 -0.097882271 64
-42.708267 -10.81451 -0.29578811 71
-42.684891 -10.82239 0.39745873 65
-42.871185 -10.79131 -0.39401466 11
-42.731297 -10.823092 0.31971866 75
-42.795933 -10.728026 -0.49283195 18
-42.718803 -10.772863 -0.25122297 47
-42.858383 -10.768023 -0.28439498 18
-42.786842 -10.78711 0.23599863 100
-42.79047 -10.795921 0.44773066 62
-42.83709 -10.771141 -0.39222872 38
-42.726627 -10.76136 -0.3254289 35
-42.666405 -10.788542 0.21722519 130
-42.757832 -10.805716 0.15359312 211
-42.709137 -10.813913 0.41502929 44
-42.760712 -10.798742 -0.40200585 29
-42.760654 -10.665827 -0.22157514 38
-42.613274 -10.773708 0.26192826 27.5
-42.726418 -10.861298 -0.30666709 17
-42.837971 -10.764445 -0.34887594 78
-42.802837 -10.805948 0.34168351 84
-42.682247 -10.858059 -0.38301104 11
-42.782768 -10.714046 0.20520258 255
-42.777435 -10.824184 0.33210224 84
-42.599117 -10.787285 0.31014085 93
-42.755699 -10.815258 0.4302721 43
-42.655579 -10.828241 0.40868968 5
-42.773895 -10.80692 0.36228243 70
-42.776974 -10.790335 -0.071618803 23
-42.696224 -10.808716 0.48276857 59
-42.809647 -10.745775 -0.2790885 71.5
-42.789219 -10.786213 0.41341177 72
-42.700012 -10.791294 -0.2598027 63
-42.707855 -10.801891 0.21311325 149.5
-42.711063 -10.802782 0.47299036 65
-42.73951 -10.856258 -0.29024035 21
-42.719536 -10.782663 -0.17015678 26
-42.727875 -10.803443 0.03311044 23
-42.635929 -10.824846 0.45346943 38
-42.753792 -10.772499 -0.29755318 11
-42.754501 -10.734628 -0.18630797 8
-42.761295 -10.76437 0.01451588 60
-42.724377 -10.789943 0.42533213 114
-42.801563 -10.76832 -0.3916136 16
-42.850117 -10.754025 -0.23789144 21.5
-42.816319 -10.78548 0.43439758 94
-42.751854 -10.78857 -0.26821339 16
-42.801151 -10.777494 -0.060999628 28
-42.829941 -10.782267 0.090504713 78
-42.807541 -10.768671 0.24843812 255
-42.756355 -10.786062 0.45632273 1
-42.645439 -10.773838 -0.29898232 0
-42.611504 -10.773321 -0.40227109 0
-42.698326 -10.768999 -0.19756895 1
-42.77853 -10.751813 0.41477472 0
-42.619087 -10.80619 0.01290315 0
-42.637127 -10.802561 0.16686729 3
-42.609451 -10.815567 -0.14394158 2
-42.604675 -10.79534 0.01967722 7
-42.616074 -10.799568 0.17798471 15
-42.826424 -10.786814 0.081337512 51
-42.604729 -10.805977 0.22998291 255
-42.763451 -10.734037 0.40706286 1
-42.808353 -10.800409 -0.30580282 23
-42.806839 -10.76737 -0.06050301 32
-42.731934 -10.753894 0.097111337 255
-42.632023 -10.771082 0.2503742 255
-42.772511 -10.755935 0.41420823 5
-42.603344 -10.778667 -0.24362504 0.5
-42.619644 -10.785258 0.0026871001 77
-42.83992 -10.770462 0.17737913 255
-42.809875 -10.838153 0.48076075 6
-42.791245 -10.803432 0.12793362 190
-42.608505 -10.793441 -0.01520056 72
-42.849228 -10.821922 0.15984809 255
-42.740597 -10.76633 0.00562221 134
-42.828987 -10.80033 -0.26238978 33
-42.833778 -10.780936 -0.09017092 43
-42.841599 -10.788246 0.075599968 255
-42.789963 -10.787385 -0.29828036 9
-42.855637 -10.825665 0.040368911 255
-42.8283 -10.784042 -0.26461524 19
-42.858074 -10.822266 -0.096657813 31
-42.8545 -10.808018 0.41783881 57
-42.830383 -10.752997 -0.40944564 16
-42.835495 -10.821499 -0.075182319 64
-42.827271 -10.823874 0.095864058 85
-42.788361 -10.730073 -0.4257924 4
-42.618034 -10.782549 0.39674485 61
-42.668087 -10.777024 0.13926099 66
-42.702778 -10.817921 0.39913362 53
-42.618599 -10.821524 0.39518499 68
-42.672009 -10.752275 -0.36616737 17
-42.645775 -10.739216 0.28598136 255
-42.6241 -10.824117 0.28997564 53
-42.725296 -10.692921 -0.49808714 3
-42.629623 -10.765199 -0.37663352 41
-42.669006 -10.737351 -0.22238564 50
-42.704876 -10.81171 0.39060903 64
-42.596962 -10.780439 -0.35064244 23.5
-42.831413 -10.819754 0.37545964 56
-42.644402 -10.751246 -0.34375802 40
-42.622395 -10.772909 -0.1445128 40
-42.648663 -10.834776 0.42179665 55
-42.66436 -10.757232 0.28586972 40
-42.713863 -10.796231 0.25958544 73
-42.739178 -10.84438 0.45860031 30
-42.730492 -10.840019 0.30362776 66
-42.612717 -10.77408 -0.26030919 23
-42.663673 -10.732182 -0.29273498 27
-42.791771 -10.72695 -0.35129243 28
-42.677441 -10.728715 -0.24046406 20.5
-42.695911 -10.74587 -0.43420357 34
-42.657066 -10.810083 -0.24865904 29.666666
-42.814487 -10.797938 0.35991919 67
-42.704239 -10.839664 -0.20413002 42.5
-42.753868 -10.806477 0.40661615 74
-42.740723 -10.812542 0.36728531 69
-42.618187 -10.811687 0.39056253 70
-42.726341 -10.759789 -0.1843124 62
-42.755676 -10.73983 -0.21004719 32
-42.70734 -10.741396 -0.39146554 39
-42.686089 -10.789163 0.41129911 61
-42.655571 -10.766316 0.13916552 255
-42.713776 -10.734784 -0.16485494 28
-42.654968 -10.828512 0.36938927 68
-42.7332 -10.797813 0.36522585 68
-42.662472 -10.768029 -0.35558158 66
-42.657448 -10.761244 -0.01195449 85
-42.721344 -10.89084 0.32817847 51.25
-42.641312 -10.752154 -0.10486972 50.5
-42.708988 -10.769814 -0.38681948 44
-42.697071 -10.783411 -0.05234313 63
-42.728989 -10.785488 0.28030634 67
-42.754723 -10.741625 -0.17683262 55
-42.784626 -10.733233 0.15016431 255
-42.719086 -10.765617 0.15499324 70
-42.660339 -10.814851 0.47955132 21.333334
-42.714851 -10.803 -0.27491742 48.666668
-42.73954 -10.776659 0.20617265 93.5
-42.60862 -10.765545 0.27949554 135
-42.778301 -10.741695 -0.29383278 52.5
-42.770069 -10.779314 0.17996871 66.5
-42.768379 -10.77745 -0.40098679 18
-42.778595 -10.740818 0.060466591 147.25
-42.770653 -10.725883 -0.076758623 106.75
-42.811253 -10.786209 0.38408327 60
-42.650028 -10.744798 -0.37464964 44
-42.805542 -10.754645 -0.23037809 45
-42.710697 -10.755985 0.21494013 47.299999
-42.691566 -10.738066 -0.22691154 49.5
-42.791718 -10.812075 0.3470149 52.75
-42.609348 -10.774115 -0.10246646 58.5
-42.618286 -10.820078 0.47068715 57.333332
-42.667034 -10.819363 -0.071800232 65.333336
-42.674332 -10.842464 0.35143793 37.599998
-42.72641 -10.738939 -0.31425434 53.333332
-42.759575 -10.669808 0.23198694 140.66667
-42.701149 -10.771315 -0.11071146 66
-42.651001 -10.771925 0.36370933 57
-42.630054 -10.8411 0.37112629 48
-42.642502 -10.786465 -0.28869236 64
-42.739895 -10.883074 0.23428655 113.33334
-42.675842 -10.759278 -0.28670776 49.5
-42.715443 -10.817013 0.10221386 115
-42.776245 -10.803025 0.48636723 9.333333
-42.735832 -10.77728 -0.29250491 58.5
-42.770611 -10.762297 -0.04346168 65
-42.760384 -10.74899 0.34080279 82.25
-42.661625 -10.757041 -0.31317872 41.666668
-42.773972 -10.853201 0.31088537 72.25
-42.640106 -10.860318 -0.20301735 65
-42.707863 -10.886271 0.16535234 148
-42.629524 -10.805269 0.41344929 52.333332
-42.599277 -10.785678 0.11736268 83.5
-42.640923 -10.813422 -0.20599896 47.875
-42.654846 -10.833317 0.27031714 61.299999
-42.825264 -10.745906 -0.30781454 54
-42.663925 -10.781886 -0.22249234 57
-42.682602 -10.786726 0.0070698299 65
-42.700184 -10.799161 0.3515842 78.533333
-42.623653 -10.770939 0.26413858 69
-42.610825 -10.804744 -0.23840761 66.25
-42.661705 -10.827066 0.20659268 118.41666
-42.732018 -10.79494 0.44467402 25.25
-42.638607 -10.747931 -0.20424366 30.5
-42.699432 -10.76675 0.22286177 125.625
-42.806694 -10.761084 -0.27773649 47
-42.800911 -10.788427 0.043647829 94.5
-42.806679 -10.851776 0.36631209 42.666668
-42.655289 -10.750879 -0.11241317 91.633331
-42.717205 -10.815223 0.28864717 92.466667
-42.818928 -10.739478 -0.30926573 43.099998
-42.794399 -10.789132 0.18777353 132.88889
-42.691376 -10.739081 0.19475627 74.44445
-42.754593 -10.853824 0.19602257 249
-42.848 -10.766833 0.37773407 8
-42.616489 -10.786077 -0.18794852 55.166664
-42.612633 -10.761938 0.18024135 155.41666
-42.69175 -10.815057 0.45299256 36.400002
-42.686054 -10.793799 -0.41286689 47.833332
-42.667809 -10.801954 -0.043395702 107.28333
-42.702572 -10.794981 0.31636769 70
-42.656662 -10.840143 0.32643414 41.5
-42.729591 -10.728474 -0.23048902 50.549999
-42.774391 -10.781525 0.21405715 130.5
-42.792114 -10.795958 0.48361939 23.5
-42.760956 -10.788657 0.48636711 43
-42.687485 -10.811647 0.41265023 59.75
-42.719803 -10.767066 0.44671851 0
-42.660591 -10.79355 0.45586759 57
-42.707951 -10.765409 -0.11407799 87.933327
-42.737701 -10.775231 0.30354637 97.300003
-42.725655 -10.804188 -0.20087314 47.777775
-42.686024 -10.833564 -0.022792701 64
-42.795597 -10.733337 0.11386722 255
-42.790691 -10.830399 0.21009016 140.41667
-42.627068 -10.82429 0.23754442 62.25
-42.881706 -10.803158 -0.31511045 44.791668
-42.711197 -10.786386 0.29506862 83.5
-42.770065 -10.783941 -0.26179093 35.482143
-42.769958 -10.778585 0.05953205 115.08334
-42.794003 -10.801125 0.37936664 79.75
-42.754601 -10.803995 0.38590193 72.5
-42.647381 -10.796498 -0.28431904 61.166668
-42.705933 -10.791637 0.093425103 139.33333
-42.67424 -10.843851 0.41411236 53.5
-42.76886 -10.744322 -0.31379366 61.333332
-42.712517 -10.781155 -0.3015762 54
-42.778698 -10.865751 -0.081519417 58.458332
-42.760117 -10.825175 0.30255383 87.888885
-42.657074 -10.737356 -0.3970657 26
-42.855286 -10.766688 -0.1351707 76.666664
-42.783413 -10.820158 -0.080408931 65.222221
-42.783653 -10.854778 0.28863752 99.25
-42.781929 -10.761095 0.50451827 80.333336
-42.743008 -10.795195 0.511213 19
-42.767395 -10.684702 -0.43253696 27.428572
-42.734802 -10.773884 0.41910321 78
-42.745789 -10.779234 -0.4605391 70
-42.68639 -10.837191 -0.24212086 33.833336
-42.713799 -10.816333 0.101592 93.488892
-42.768364 -10.791273 0.3709023 90.5
-42.720703 -10.770924 -0.38887876 64.5
-42.691032 -10.713442 -0.10853434 77.98333
-42.746765 -10.756367 0.22353017 176.5
-42.739296 -10.868652 0.29642457 90.888893
-42.615925 -10.789419 -0.27782762 70.825401
-42.722931 -10.827916 0.37540299 82.75
-42.68644 -10.738444 -0.096539617 65.611115
-42.710117 -10.748424 0.29568267 153.16667
-42.756958 -10.753942 0.55226463 69
-42.723412 -10.766257 0.55698341 63.5
-42.712364 -10.747244 -0.36910123 72.25
-42.696941 -10.842754 -0.37320465 9
-42.696808 -10.73671 -0.10875386 77.916664
-42.736416 -10.744289 0.26813748 165.83333
-42.672878 -10.751389 0.39660144 54
-42.722183 -10.804075 -0.39860475 38.25
-42.763866 -10.805607 -0.15840387 71.5
-42.768261 -10.773027 0.20900148 101.66666
-42.744598 -10.71141 -0.35570127 45.849998
-42.79314 -10.789281 -0.39442587 8.5
-42.695976 -10.802307 0.38852322 99.5
-42.650082 -10.767653 -0.28212917 64.333336
-42.643543 -10.779566 0.067454398 78.222221
-42.674999 -10.804733 0.3492415 95.125
-42.687141 -10.749945 -0.26703107 64.388893
-42.690723 -10.773602 0.074944504 89.44445
-42.704853 -10.729088 0.35422006 70.375
-42.744705 -10.777719 -0.32534075 39.333332
-42.764427 -10.696467 0.34344557 59.5
-42.855019 -10.791628 0.25839433 109
-42.661102 -10.736355 0.30187681 82.583336
-42.822147 -10.748287 0.48722637 80.75
-42.757618 -10.757028 -0.11977899 100
-42.757206 -10.768869 0.096637957 171.16667
-42.772305 -10.786874 0.36412528 82.300003
-42.666069 -10.777576 -0.41524237 49
-42.689709 -10.836267 -0.15369886 66.895836
-42.617176 -10.803944 0.2910555 117.5
-42.668495 -10.817533 0.44061545 70.333336
-42.740944 -10.74571 -0.41195124 26.545454
-42.763542 -10.733854 -0.19905454 93.416664
-42.792187 -10.747785 0.16817594 146.52083
-42.767113 -10.767639 0.43841195 83
-42.814022 -10.734652 0.47303456 55.666668
-42.843639 -10.823526 -0.37124568 22
-42.83876 -10.801596 0.22852868 108.85714
-42.817677 -10.756823 0.4981994 53.75
-42.880733 -10.796425 -0.43592477 10
-42.69389 -10.757243 0.04336172 148.04514
-42.851097 -10.791685 0.31329972 52.712502
-42.69315 -10.7682 0.1920062 130.30292
-42.811775 -10.785798 0.42143041 55.345238
-42.701859 -10.849934 0.081263043 104.25
-42.715302 -10.861422 0.38733619 34.5
-42.663139 -10.806406 0.40276355 50.75
-42.707844 -10.803385 0.15981352 1.5
-42.742912 -10.850436 0.3552807 68.32592
-42.730965 -10.709758 0.080189466 39.716667
-42.774124 -10.6782 0.25838983 14.333333
-42.845592 -10.815744 0.23013061 148.65001
-42.81237 -10.820239 0.44956726 59.75
-42.769089 -10.773465 0.089229703 0.75
-42.787739 -10.789297 0.35391822 89.351196
-42.816792 -10.847609 -0.042397499 31.5
-42.746677 -10.793159 -0.02091616 25.433334
-42.756748 -10.780727 0.30890256 85.930557
-42.769901 -10.837566 0.067434609 12.428572
-42.795189 -10.829666 0.28629342 46.32143
-42.832863 -10.766769 0.2234728 0
-42.814335 -10.713778 0.10400921 175.51428
-42.66782 -10.733621 0.043380622 22
-42.850471 -10.777102 -0.11129659 7
-42.691013 -10.750404 0.29016024 19.688889
-42.868504 -10.801357 0.0048239199 67.166664
-42.682674 -10.757516 0.01981288 46
-42.806988 -10.732287 0.34583706 72.683334
-42.825577 -10.807878 -0.11212105 57.277782
-42.754906 -10.737335 0.29676804 96.282539
-42.831036 -10.761303 -0.1370182 39.944443
-42.854397 -10.772193 0.19136715 180.20833
-42.619396 -10.757466 0.13464412 229
-42.849991 -10.783247 -0.37994611 0
-42.64114 -10.742974 0.24670771 72.833328
-42.817039 -10.765055 -0.31299132 45.336365
-42.801361 -10.783069 0.029078539 96.777779
-42.65654 -10.748434 0.32208267 22.5
-42.704597 -10.775299 -0.1356855 1
-42.70118 -10.816225 -0.14538157 2
-42.740517 -10.752103 0.153175 35.333332
-42.677189 -10.763582 -0.3258459 1.5
-42.647518 -10.751821 0.03465325 33
-42.638973 -10.761822 0.31907398 27.666666
-42.744228 -10.68582 -0.31771332 42.940475
-42.768223 -10.748295 0.02503234 166.28571
-42.79464 -10.774064 0.30099785 151.09286
-42.720474 -10.780048 -0.31731343 35.611111
-42.725639 -10.779361 -0.028630139 67.199997
-42.8251 -10.793531 0.32320118 124.25
-42.827957 -10.80876 -0.20551062 58.551586
-42.813236 -10.714125 0.38299704 54.75
-42.629532 -10.758572 -0.4022541 22.700001
-42.826138 -10.785902 -0.031737689 72.666664
-42.605927 -10.77766 -0.11147743 36.916668
-42.864082 -10.797934 0.25161821 126.97222
-42.873798 -10.812807 -0.0071231099 98.333336
-42.633972 -10.77483 0.067373812 12.333333
-42.873825 -10.79407 0.28658068 122.23863
-42.786755 -10.823157 0.35340476 80.25
-42.740482 -10.819338 -0.22447699 31.566666
-42.816532 -10.817463 0.22099346 161.12379
-42.765915 -10.805074 -0.065298907 9.791666
-42.789406 -10.799015 0.30623734 25.754499
-42.812996 -10.770243 0.10301369 13
-42.787189 -10.709638 0.11528939 0
-42.746716 -10.677399 0.12114537 0
-42.838688 -10.816735 0.31737745 28
-42.822109 -10.767651 0.32755798 5.916667
-42.863945 -10.807453 -0.34628981 15.277778
-42.607761 -10.772142 -0.29010195 6
-42.846664 -10.830974 0.048464 73.322227
-42.810638 -10.827126 -0.28520674 15.055554
-42.802551 -10.838551 0.11521661 129.75
-42.863091 -10.821331 0.37711683 6.25
-42.821117 -10.818969 -0.29569638 22
-42.763268 -10.793362 0.12023461 121.41666
-42.849041 -10.805463 0.36297688 79
-42.807365 -10.750139 -0.16759568 52.166664
-42.817368 -10.786039 0.25732255 93.08889
-42.833874 -10.810361 0.20675671 9.5
-42.846989 -10.803636 -0.15131927 38.5
-42.861786 -10.824011 -0.23095453 33
-42.715729 -10.763988 0.13152158 68
-42.700195 -10.853348 -0.38186049 26.5
-42.601509 -10.796027 -0.01225638 255
-42.844852 -10.82152 0.39164472 25
-42.866417 -10.803229 0.43789268 24.5
-42.690182 -10.796169 -0.38274294 9.75
-42.837795 -10.820629 -0.31968117 38
-42.653999 -10.745297 -0.339288 19
-42.819225 -10.843704 -0.10478371 39.5
-42.727737 -10.841352 0.27045089 93
-42.667542 -10.800795 -0.2551704 28
-42.783539 -10.724966 -0.23039013 7
-42.762825 -10.845257 0.1485433 34.5
-42.674267 -10.858562 -0.27213496 28
-42.66214 -10.885036 -0.3458612 36
-42.759838 -10.821719 0.0681777 115.25
-42.714928 -10.869592 -0.096552432 31.5
-42.741119 -10.876354 -0.42769969 23.75
-42.85273 -10.807222 0.46328342 5
-42.729561 -10.761791 0.31704235 40.666668
-42.775566 -10.821178 -0.23819846 16
-42.780579 -10.855997 0.17786533 77
-42.812557 -10.775106 -0.10929716 15.666667
-42.839077 -10.830675 0.3110503 33.5
-42.757145 -10.84936 -0.13930357 24.5
-42.764709 -10.8622 0.29109848 30
-42.659782 -10.847942 -0.2422775 20.666666
-42.759087 -10.852606 0.20343125 45.5
-42.758087 -10.836369 -0.41655493 10
-42.733475 -10.854511 -0.44802392 32
-42.714428 -10.819313 0.060627341 54
-42.689545 -10.916719 0.52037257 21
-42.728943 -10.836693 -0.2402184 13
-42.708412 -10.864204 -0.26431525 27.5
-42.701965 -10.812553 0.093164563 255
-42.791977 -10.837322 -0.44974351 28
-42.726105 -10.851807 -0.27569014 32
-42.775421 -10.829762 -0.39213675 36
-42.696445 -10.795269 0.10594296 255
-42.626751 -10.835308 -0.40040606 9
-42.695671 -10.787861 0.10835755 169.5
-42.661942 -10.9044 -0.038794279 219
-42.666912 -10.791096 -0.28475702 18
-42.625584 -10.837238 0.21205342 255
-42.677811 -10.790726 -0.19823986 19
-42.609264 -10.793362 -0.12568617 23
-42.652397 -10.790562 -0.15874827 24
-42.782127 -10.838387 0.13592017 212
-42.836983 -10.827614 0.15181178 56
-42.663933 -10.82494 -0.076280467 255
-42.623055 -10.833668 -0.41268724 19
-42.641384 -10.829006 -0.17687809 255
-42.690109 -10.861938 -0.028611479 55
-42.755615 -10.87006 0.15425706 255
-42.700531 -10.863014 -0.26179552 39
-42.770393 -10.849812 0.27840787 31
-42.655151 -10.799953 0.13434088 255
-42.63559 -10.800289 -0.37868798 19
-42.682499 -10.877598 -0.41041243 5
-42.645466 -10.779808 -0.16407639 23
-42.733093 -10.882877 -0.36581635 21.666666
-42.674545 -10.902435 -0.3318398 33
-42.688042 -10.864193 -0.34630513 30.5
-42.765457 -10.854565 -0.11790448 57
-42.621754 -10.827885 0.15030181 255
-42.64687 -10.830231 -0.089464553 255
-42.737881 -10.79969 0.37576807 153.5
-42.69257 -10.919281 -0.0084907999 255
-42.62093 -10.834797 -0.055985391 255
-42.694294 -10.86002 0.13557059 175
-42.715431 -10.757607 0.19320321 59
-42.657177 -10.896408 0.12450898 194
-42.75499 -10.779671 -0.40504783 10
-42.701149 -10.905582 0.35406429 51
-42.664433 -10.907578 -0.031937119 58
-42.687351 -10.870441 -0.40811306 30.5
-42.700474 -10.870327 -0.49120033 17
-42.754536 -10.800014 0.03029066 255
-42.799564 -10.799351 -0.37016743 37.5
-42.812996 -10.83379 -0.52346325 34.5
-42.604897 -10.803089 0.24330801 255
-42.856308 -10.805218 -0.054150101 128.5
-42.624546 -10.762203 -0.53639901 5
-42.82954 -10.813812 -0.4732573 28
-42.671902 -10.922947 -0.13771898 61
-42.623852 -10.790405 -0.14592236 58
-42.682137 -10.916451 -0.25606596 21
-42.693523 -10.741722 -0.022530559 15
-42.744972 -10.804054 -0.35124362 30.333334
-42.682903 -10.912197 0.51863128 41
-42.693245 -10.900074 -0.38916183 4
-42.749683 -10.799934 0.066354223 55.5
-42.850349 -10.771515 0.14947158 35.5
-42.619995 -10.783241 0.04448479 122.5
-42.673973 -10.886925 -0.56841505 5
-42.660545 -10.879215 0.19498563 180
-42.682446 -10.82341 -0.18831623 131
-42.729065 -10.885235 0.30227864 40
-42.701378 -10.797993 0.37109137 0
-42.694809 -10.876362 -0.02201492 31.5
-42.659019 -10.796425 -0.24315572 6.5
-42.679211 -10.833717 0.074096799 171
-42.708557 -10.903545 0.23054397 88
-42.679184 -10.829113 0.03365171 134.5
-42.612644 -10.774395 -0.19456071 24.333334
-42.645748 -10.864361 -0.048106309 255
-42.700043 -10.884842 -0.2232337 57
-42.676422 -10.875942 0.47917378 38
-42.650452 -10.870331 -0.22552943 6
-42.657295 -10.851391 0.01270449 4
-42.8395 -10.833195 0.46101683 7
-42.648636 -10.884037 0.082288504 190.5
-42.748566 -10.886837 0.11873525 7
-42.721798 -10.87384 -0.41122758 38
-42.636208 -10.831867 -0.1246438 15.5
-42.637306 -10.839973 -0.28379047 15
-42.672134 -10.734928 0.26952863 22
-42.727676 -10.893814 -0.40326524 15
-42.667984 -10.906544 -0.03301036 102.5
-42.665134 -10.795559 -0.28588849 56
-42.695251 -10.779819 -0.025723221 57
-42.747177 -10.880547 -0.20024979 20.666666
-42.766098 -10.754192 -0.2626282 15.5
-42.656425 -10.801285 0.16294134 141.5
-42.77504 -10.853424 -0.27111995 24
-42.649834 -10.799538 -0.01203787 119
-42.686218 -10.864929 0.30905426 51
-42.735798 -10.849236 0.045049071 19.5
-42.812473 -10.837074 -0.32569039 4
-42.706779 -10.762497 0.13031185 12.5
-42.718224 -10.879803 0.13034403 39
-42.702 -10.897907 -0.35040569 4
-42.698074 -10.829166 0.45490408 27.5
-42.628128 -10.834858 -0.30489063 6
-42.70314 -10.891064 0.18733132 94.5
-42.761177 -10.809616 -0.27927363 6
-42.723526 -10.885502 -0.18986464 14.666667
-42.748787 -10.888386 -0.42159832 37
-42.739204 -10.894249 -0.52470016 22
-42.740147 -10.875385 0.29617953 8
-42.720943 -10.85133 -0.33568943 15
-42.694538 -10.887924 0.1552254 31
-42.733501 -10.872284 -0.34762383 3
-42.749344 -10.862133 -0.38770533 14.5
-42.767807 -10.707726 -0.15814769 10.5
-42.737606 -10.735676 -0.29885077 6
-42.739883 -10.887817 -0.058610801 5
-42.732697 -10.86845 -0.11739826 22.5
-42.672729 -10.913315 0.26047671 23
-42.880386 -10.808449 0.28989851 2
-42.734138 -10.795254 -0.12277031 3
-42.710213 -10.87912 -0.26356006 22
-42.732105 -10.884731 0.060216989 5
-42.682785 -10.849739 -0.32090095 27
-42.668186 -10.89381 0.34405634 255
-42.669834 -10.890619 0.11349577 255
-42.62944 -10.776413 0.049956501 255
-42.676285 -10.900253 -0.3821063 60
-42.709564 -10.87878 0.11701509 255
-42.642548 -10.746141 -0.27709776 31
-42.794415 -10.849796 -0.41333461 7.5
-42.654144 -10.864983 0.15416446 255
-42.712708 -10.899681 0.20572191 31
-42.634022 -10.842072 -0.15024979 75
-42.603142 -10.796978 0.16062307 255
-42.709015 -10.733229 -0.19575059 48
-42.653942 -10.793608 -0.17344274 72
-42.62896 -10.806208 -0.30417103 43
-42.618099 -10.808943 -0.16616549 63
-42.61932 -10.780224 -0.17989425 59
-42.635651 -10.851522 -0.12503932 73
-42.646595 -10.848362 -0.13150144 223
-42.652855 -10.858671 -0.10707243 57
-42.648022 -10.851562 0.61888075 23
-42.631882 -10.798819 0.30236554 255
-42.620064 -10.820633 -0.062540457 129
-42.665501 -10.88459 0.60866499 10
-42.688919 -10.845818 0.61355054 7
-42.631744 -10.817162 0.13206494 113
-42.617455 -10.826389 -0.16440362 61
-42.62891 -10.827969 -0.064187363 255
-42.698601 -10.706409 0.026433481 42
-42.617123 -10.802681 0.64317274 30
-42.672112 -10.867066 0.23690554 255
-42.653343 -10.833454 0.4171626 91
-42.661919 -10.803432 0.1350036 255
-42.658524 -10.763192 -0.29951054 30
-42.801193 -10.773415 0.47192568 30
-42.780235 -10.841611 0.42220521 22
-42.638748 -10.872644 0.63753545 54.5
-42.726414 -10.849008 0.22880588 255
-42.640347 -10.844416 0.097724512 255
-42.729511 -10.828921 -0.17610328 3
-42.792877 -10.817995 -0.07497485 13
-42.62859 -10.844469 0.30234295 156.5
-42.706203 -10.809556 0.22487886 59.5
-42.641441 -10.835656 -0.048097461 9
-42.761322 -10.833102 -0.19842768 18.5
-42.659897 -10.813312 -0.15447474 20.5
-42.597404 -10.784101 0.20339429 187
-42.710342 -10.835485 -0.15943128 19
-42.646851 -10.841862 -0.31415653 55
-42.61198 -10.780433 0.05988133 78
-42.689678 -10.917515 0.50662816 51
-42.647594 -10.845804 -0.19543064 48.5
-42.641994 -10.836989 -0.2503823 58
-42.681892 -10.830803 -0.2161597 57
-42.777164 -10.806846 -0.2738862 18
-42.809013 -10.831779 -0.34589493 59
-42.635513 -10.827152 -0.3348695 38
-42.740601 -10.679482 -0.12365991 52
-42.662842 -10.851406 -0.096991122 39.5
-42.630638 -10.788731 0.2687344 255
-42.707844 -10.812315 -0.21555972 50.5
-42.730785 -10.817698 0.50932002 51.5
-42.672089 -10.813663 -0.29988992 59
-42.635895 -10.816736 0.28005546 128
-42.788399 -10.789698 0.054503441 119.5
-42.658882 -10.816708 0.033711791 52
-42.690601 -10.768945 -0.18360186 44.5
-42.756485 -10.86976 0.44871736 54
-42.704796 -10.820023 0.25708455 255
-42.666725 -10.84008 0.13304052 255
-42.703327 -10.772854 0.43311799 52.200001
-42.664169 -10.82189 -0.13368553 61.25
-42.719368 -10.816486 0.29574281 68
-42.790916 -10.745007 -0.39004779 23
-42.626549 -10.789016 -0.36929131 20.5
-42.859734 -10.803484 -0.10495162 26
-42.682869 -10.834527 0.0556488 64.833336
-42.790215 -10.810108 -0.22169799 64
-42.603062 -10.780237 -0.20319289 25
-42.653381 -10.801624 0.069173627 102
-42.76469 -10.829079 0.3395465 57
-42.656898 -10.806973 -0.32231784 53
-42.730011 -10.828644 0.35340977 95
-42.632385 -10.822042 -0.15637165 103.375
-42.696445 -10.84676 0.37091678 101.4
-42.811691 -10.812542 0.49583668 0
-42.776142 -10.857502 -0.12484217 50
-42.647865 -10.83862 -0.071417332 71.5
-42.706314 -10.909991 0.4441328 65.166664
-42.714622 -10.804872 -0.24656844 40.666668
-42.714592 -10.802256 0.12111688 89.875
-42.665012 -10.820518 -0.037273999 60.333336
-42.702312 -10.809994 0.31577122 150.66667
-42.738659 -10.818356 0.55243337 27.5
-42.691547 -10.860264 0.56184113 15
-42.692795 -10.821243 0.27804655 153.75
-42.768436 -10.790252 -0.37918621 33
-42.610802 -10.80526 -0.0112409 117.675
-42.629284 -10.835114 0.33141381 52.400002
-42.74157 -10.866212 -0.36049235 56
-42.763763 -10.808802 0.085273623 68.5
-42.78355 -10.813579 -0.30232716 55.5
-42.827095 -10.81936 0.023497101 112.08334
-42.618435 -10.799122 0.049850579 151.33333
-42.744797 -10.818986 0.36532855 49.333332
-42.880283 -10.796185 -0.38781416 24.799999
-42.695606 -10.762527 -0.14955556 31
-42.625164 -10.812033 0.38634813 77.75
-42.629917 -10.812235 -0.34854484 29
-42.853821 -10.773658 -0.078442223 31
-42.720119 -10.8006 0.043533329 173.98334
-42.787136 -10.825081 0.34463191 47.333332
-42.774673 -10.797994 -0.059705138 63
-42.769855 -10.856565 0.04383361 35
-42.799252 -10.806308 0.43637395 70.666664
-42.772907 -10.871731 0.34508419 137.5
-42.621334 -10.770291 0.36156052 67.724998
-42.696465 -10.816658 -0.10163087 48.333332
-42.75045 -10.802995 0.35947776 100.7
-42.758541 -10.714581 0.25248057 74.433334
-42.625061 -10.815029 -0.30864924 42.75
-42.669075 -10.837458 -0.047808468 46.866669
-42.701427 -10.841187 0.30514354 133.60001
-42.681755 -10.886351 -0.20781559 21.833334
-42.718121 -10.722332 0.20977825 126.75
-42.710159 -10.885334 0.22151387 79.333336
-42.815521 -10.789377 -0.21152383 50.222225
-42.670517 -10.782879 -0.18632638 35.261906
-42.77174 -10.768579 0.21226162 94.922226
-42.775043 -10.807351 -0.18013346 40.743938
-42.7491 -10.825761 0.23884135 101.225
-42.779491 -10.81444 0.48104846 71
-42.724838 -10.817227 0.48920244 52
-42.727139 -10.800062 -0.064685881 59.888889
-42.739513 -10.780623 0.33052397 96.625
-42.688019 -10.805428 -0.23354417 69.638885
-42.726219 -10.779634 0.1460458 243
-42.682663 -10.876496 0.31145746 18.5
-42.784111 -10.772135 -0.37848967 60.799999
-42.770767 -10.7315 -0.076025128 87.797615
-42.786758 -10.735813 0.29285139 102.0238
-42.736076 -10.743029 -0.12016553 65.996033
-42.605789 -10.772631 0.04730982 255
-42.834148 -10.770763 0.3012569 102.27778
-42.645912 -10.758486 0.32833737 18
-42.749016 -10.758188 -0.26335853 56.083336
-42.784142 -10.702818 0.07125181 105.97143
-42.808105 -10.724035 0.40630841 98.824997
-42.702667 -10.816067 0.13935167 68
-42.643459 -10.778898 -0.095758319 134.125
-42.764797 -10.824318 0.26959521 92.25
-42.647957 -10.786352 -0.45421422 19.333334
-42.642845 -10.786797 -0.26237088 66.25
-42.714798 -10.812557 -0.443371 39.714287
-42.697784 -10.765282 -0.1355077 46.208332
-42.731083 -10.815732 0.28084886 96.866669
-42.750893 -10.788284 -0.28468555 63.583332
-42.766464 -10.797668 0.13063747 73.375
-42.810535 -10.799532 0.41949534 69
-42.674366 -10.91176 -0.41421783 7.333333
-42.721733 -10.803564 0.39843482 66.5
-42.794067 -10.766572 -0.43437469 59
-42.773506 -10.679733 -0.19392937 79.166664
-42.845592 -10.828934 -0.10584885 65
-42.803795 -10.72928 0.1888901 138.29166
-42.76532 -10.851801 0.25075495 16.666666
-42.743176 -10.70728 -0.38283044 26
-42.766098 -10.691225 -0.22127712 63.195835
-42.764648 -10.782256 0.20212966 154.58334
-42.739429 -10.800952 0.47545519 87.666664
-42.769936 -10.716716 -0.2650162 44.900002
-42.796162 -10.746571 0.15068626 139.6125
-42.668018 -10.789576 -0.30646014 25.166666
-42.768246 -10.824764 0.30413163 128.05713
-42.776806 -10.817816 0.56331623 37.5
-42.663158 -10.765444 -0.3688032 20.5
-42.689617 -10.787626 -0.11525756 54.279167
-42.708305 -10.820528 0.29132712 148.55832
-42.75288 -10.833172 -0.41650915 2.2352941
-42.79454 -10.773801 -0.2510404 12.133928
-42.760029 -10.776529 0.166655 134.84047
-42.801613 -10.826216 0.41282418 54
-42.720516 -10.728668 -0.31878984 9.2077923
-42.824196 -10.76129 0.075873323 128.22421
-42.631466 -10.763235 -0.35949934 4.875
-42.740814 -10.744888 -0.20607603 10.20625
-42.756508 -10.770101 0.20203966 95.874748
-42.722519 -10.807398 -0.25927478 4.666667
-42.827099 -10.739816 0.23098338 75.35714
-42.614357 -10.764808 0.22995266 255
-42.657539 -10.7598 -0.01392078 113.44445
-42.730968 -10.731149 0.18050161 47.423809
-42.802017 -10.855329 0.45699012 0
-42.822014 -10.83224 -0.13906497 1.516667
-42.813442 -10.786986 -0.31322885 2.166667
-42.592457 -10.782906 0.15519047 252.25
-42.800205 -10.781881 0.39546746 33
-42.720081 -10.726074 -0.29716718 18.541668
-42.840202 -10.7939 0.093057752 189.66667
-42.697166 -10.775316 0.01127291 144
-42.84127 -10.806207 0.32604054 132.16666
-42.769997 -10.849336 0.31528336 93.833328
-42.822083 -10.819582 -0.1540941 1.111111
-42.783356 -10.71126 0.26769012 58.35606
-42.734135 -10.68259 -0.092600942 10.25
-42.627174 -10.775489 -0.12026107 23
-42.820221 -10.846834 0.2001482 89.666664
-42.620731 -10.831479 0.1964252 7.25
-42.750259 -10.807522 -0.0075592999 17.666666
-42.804745 -10.784641 -0.3259635 0.66666698
-42.846428 -10.810476 0.41243047 39.5
-42.742172 -10.758614 -0.34745628 13.75
-42.837814 -10.759788 0.081686318 255
-42.804291 -10.83718 -0.021690071 57.75
-42.851578 -10.820242 0.31857109 63.791668
-42.813202 -10.789669 -0.26863497 11.916667
-42.845104 -10.83511 -0.33582032 33.595238
-42.849998 -10.787581 0.44765627 33.5
-42.706799 -10.843741 -0.08328259 0
-42.760769 -10.829133 0.27543235 22.333334
-42.816078 -10.83829 -0.060884889 22
-42.732948 -10.851364 -0.074522913 26
-42.79512 -10.73815 -0.05256265 6
-42.801216 -10.791718 0.31696469 22
-42.618855 -10.78417 -0.02452236 18
-42.765293 -10.858345 -0.18876833 1
-42.727917 -10.808907 -0.25947547 7
-42.714256 -10.78754 -0.13059169 19
-42.688133 -10.898361 0.21113592 117
-42.705215 -10.869984 -0.33966339 16.5
-42.715786 -10.771832 -0.3932671 1
-42.645367 -10.802467 -0.32836705 4
-42.658875 -10.733303 -0.12872058 1
-42.638115 -10.814911 -0.14826518 4
-42.672531 -10.824738 -0.087863028 25
-42.646114 -10.789322 -0.23068446 10
-42.657009 -10.826229 0.096428752 255
-42.626045 -10.824112 0.065824151 255
-42.648602 -10.831955 -0.060084581 255
-42.659447 -10.816029 -0.12007195 230
-42.743717 -10.696339 -0.18632126 19.5
-42.777554 -10.768349 -0.19942707 15
-42.64743 -10.840084 -0.06056774 255
-42.621262 -10.836662 -0.10031015 255
-42.6441 -10.817062 -0.39754838 12
-42.614487 -10.827824 0.28354549 169
-42.615452 -10.816349 0.20231426 255
-42.686337 -10.828682 0.2609455 13
-42.766796 -10.696178 -0.02195311 133
-42.64901 -10.763847 0.0083474498 2
-42.628784 -10.831692 -0.043642461 255
-42.671692 -10.918392 -0.38364226 24.333334
-42.736637 -10.816643 -0.14973927 152
-42.743385 -10.799335 0.073582768 255
-42.682606 -10.893127 -0.56990695 19.5
-42.766933 -10.812286 0.00233394 26
-42.616554 -10.811371 -0.32110453 20
-42.825996 -10.772224 -0.28621054 28
-42.662319 -10.808979 -0.47813123 6
-42.796848 -10.700546 -0.37236732 10
-42.654396 -10.851761 0.15336728 104.66666
-42.595192 -10.787384 0.28818744 107
-42.749706 -10.764465 0.18467361 16
-42.69223 -10.917747 0.084133796 33
-42.673347 -10.75626 -0.36349273 5
-42.733364 -10.881737 0.09420085 107.66666
-42.655907 -10.825733 0.041991059 25
-42.678288 -10.829445 0.28870285 55
-42.835747 -10.74836 0.32113802 20
-42.811871 -10.804447 -0.23012459 52.5
-42.771088 -10.854984 0.35184759 103.66666
-42.662354 -10.901794 -0.21968651 55
-42.698418 -10.911774 -0.52673447 7
-42.61311 -10.823196 0.25182953 55
-42.662971 -10.918461 0.47903517 4
-42.619244 -10.776308 -0.27928999 103
-42.643471 -10.818312 0.10175501 255
-42.702991 -10.912476 0.19344768 37
-42.649891 -10.81035 0.51507962 66
-42.702808 -10.904884 -0.10812134 8
-42.683075 -10.808072 -0.35704947 3
-42.615891 -10.777396 0.38431051 34
-42.683189 -10.776406 0.37319714 25.5
-42.642097 -10.747818 0.22689697 255
-42.70142 -10.871001 -0.22187486 7
-42.723488 -10.900036 -0.16396865 11
-42.642925 -10.745885 0.18475185 255
-42.771614 -10.868558 0.48278832 14.333333
-42.663773 -10.803707 0.22367845 255
-42.754723 -10.879345 -0.075906329 12
-42.698475 -10.853817 0.10835338 9
-42.653702 -10.814856 0.26092055 255
-42.634247 -10.829227 0.1533981 255
