# .PCD v0.7 - Point Cloud Data file format
VERSION 0.7
FIELDS x y z intensity
SIZE 4 4 4 4
TYPE F F F F
COUNT 1 1 1 1
WIDTH 1236
HEIGHT 1
VIEWPOINT 0 0 0 1 0 0 0
POINTS 1236
DATA ascii
-24.291702 -3.2483301 -0.30754581 26.5
-24.339314 -3.0632553 -0.41408342 26
-24.387703 -2.9619606 -0.19999295 27.5
-24.357105 -3.2548637 -0.17990488 24
-24.302158 -3.1065764 -0.18631166 28.75
-24.587303 -3.4176941 -0.51623756 9
-24.227928 -2.9432216 -0.29316944 28.5
-24.131058 -3.1426058 -0.3870402 26.440475
-24.214808 -2.9953699 -0.37568203 28
-24.175417 -3.2390974 -0.36357084 22.5
-24.140686 -3.1111827 -0.36627999 28
-24.231453 -2.9686213 -0.16390052 29
-24.162554 -3.0819306 -0.15583959 29.25
-24.164301 -3.2259865 -0.1498405 25.5
-24.159294 -3.054903 -0.40499985 28.6
-24.149323 -3.2281234 -0.40060484 23.333334
-24.176723 -3.0512743 -0.19660485 31.6
-24.146923 -3.2015078 -0.1914897 28.5
-24.253593 -3.043581 -0.34622109 25.6
-24.253792 -3.2639062 -0.34324664 21.5
-24.238796 -3.1101584 -0.13915867 30.6
-24.231575 -3.2367346 -0.13668996 29
-24.211483 -3.0987432 -0.60259455 12.4
-24.335825 -3.5106952 -0.59156781 9.333333
-24.400352 -2.9029403 -0.42468905 22
-24.274261 -3.0841041 -0.30520642 24.611111
-24.319767 -3.3504391 -0.39493412 21
-24.250467 -3.0666144 -0.32172984 26.75
-24.288147 -3.2587647 -0.31743646 23
-24.251598 -3.0768545 -0.12426758 29.857143
-24.266497 -3.2444148 -0.11836135 25
-24.554222 -3.4511881 -0.51406717 11.666667
-24.246519 -3.0072608 -0.4029617 26.033333
-24.189634 -3.1860261 -0.39362958 26
-24.31057 -3.0829883 -0.52042353 20.90909
-24.434185 -3.5197301 -0.51844418 10.9
-24.269993 -3.0903163 -0.23187408 25.130953
-24.302605 -3.3303084 -0.32123241 22
-24.161835 -3.1136117 -0.3185173 27.333334
-24.239376 -3.0772939 -0.50328946 27.5
-24.239193 -3.2532325 -0.49846959 23
-24.248642 -3.0524352 -0.31909728 28.428572
-24.234606 -3.2445662 -0.31234837 24.333334
-24.208153 -2.9967942 -0.31786621 28.799999
-24.181431 -3.2596483 -0.30464387 24.666666
-24.052729 -3.2823949 -0.38304198 17.318182
-24.171398 -3.065223 -0.12934804 30
-24.156601 -3.2091451 -0.12192005 27.333334
-24.226267 -3.097147 -0.43316591 27.5
-24.249992 -3.2812138 -0.43070936 22
-24.233706 -3.0731974 -0.25503302 27.888889
-24.244617 -3.2725763 -0.25028419 22.5
-24.455471 -2.9316838 -0.3466616 20.133333
-24.307636 -3.2913113 -0.33622798 20.299999
-24.215633 -3.0419717 -0.23940846 29
-24.171818 -3.1453199 -0.23674348 25.799999
-24.266369 -3.0495191 -0.067538053 29
-24.256281 -3.1592174 -0.067245036 28.4
-24.156055 -3.005384 -0.40788916 27.666666
-24.09602 -3.1619177 -0.40612283 25.571428
-24.173908 -2.9886036 -0.23711273 25.75
-24.098957 -3.1632023 -0.23525342 25.571428
-24.16037 -3.0623422 -0.35188207 25.666666
-24.109318 -2.8477025 -0.51002121 9.333333
-24.029625 -3.1026936 -0.4254646 18.713676
-24.082882 -3.0979121 -0.17913035 27.200001
-24.101269 -3.0654311 -0.42720169 28.83889
-24.141186 -3.283721 -0.42444062 22.916668
-24.309612 -3.0065713 -0.19677621 7
-24.059542 -3.0407174 -0.43126053 19.25
-24.058008 -3.2527902 -0.4240548 17.416666
-24.230247 -2.991704 -0.21250254 28.285715
-24.184883 -3.2032075 -0.20026588 26
-24.635838 -3.3922973 -0.58731663 10.5
-24.368057 -2.9248118 -0.42507717 23.888891
-24.272003 -3.1543152 -0.40238926 25.990477
-24.189461 -3.1012979 -0.39732435 26.799999
-24.438602 -3.1263926 -0.31153917 25.474747
-24.521677 -2.9250722 -0.10448009 27.5
-24.442387 -3.088371 -0.084701844 28.555555
-24.397005 -2.9339638 -0.33991122 28.5
-24.279184 -3.1450095 -0.40143573 26.173077
-24.283039 -3.1173005 -0.17808461 28.200001
-24.423645 -2.9351678 -0.40767387 28
-24.382456 -3.3910799 -0.39454988 29
-24.221928 -2.9096906 -0.38670489 21.8547
-24.149036 -3.1605189 -0.37491354 21.060606
-24.364304 -3.0223053 -0.10439608 7
-24.013416 -3.1057696 -0.42219779 26.25
-24.196732 -3.3751493 -0.4355993 17
-24.020491 -3.0915627 -0.21085289 27.505554
-24.057085 -3.334738 -0.27703521 20
-24.292065 -2.8391566 -0.50273216 12.133333
-24.218975 -3.2269766 -0.48527837 22
-24.217497 -2.9697852 -0.28186715 27.625
-24.125195 -3.1631172 -0.26723874 26.768181
-24.362949 -2.9311781 -0.46490678 20
-24.188881 -3.1287503 -0.50382757 20.074177
-24.239742 -3.3466558 -0.5005734 17
-24.322166 -2.9159355 -0.32489237 28
-24.198673 -3.0985718 -0.23714212 23.194445
-24.241484 -3.3203268 -0.29790023 21
-24.375193 -2.9932942 -0.46840262 24.259596
-24.421286 -3.2709317 -0.45649207 18.788462
-24.399673 -3.023901 -0.20777404 21.666666
-24.428432 -3.1726894 -0.19951767 11
-24.507729 -2.8954802 -0.37916023 20.388889
-24.512131 -3.3891582 -0.35922754 18.625
-24.286837 -3.0252838 -0.27998447 28.703705
-24.272858 -3.2010601 -0.27062255 25.433334
-24.115532 -3.0251064 -0.52873921 11.5625
-24.11726 -3.4203742 -0.51639926 10.8125
-24.21841 -3.0719199 -0.29771784 29.126984
-24.232462 -3.2665601 -0.29209873 22.583334
-24.111326 -3.261827 -0.4926793 12.733334
-24.154804 -3.0003119 -0.27276021 30.008331
-24.094835 -3.1825025 -0.2558133 26.363638
-24.270306 -3.0703771 -0.46659482 21.944445
-24.398233 -3.496819 -0.48096585 11
-24.264568 -2.9881444 -0.23553509 25.066666
-24.238779 -3.2977915 -0.28419977 21.5
-24.179411 -3.1246045 -0.22233415 27.414141
-24.159618 -3.1474991 -0.58880055 18.505556
-24.357986 -2.9236021 -0.40314761 27.25
-24.250185 -3.1139641 -0.32710287 22.917755
-24.400616 -2.9579334 -0.43646109 24.75
-24.454842 -3.341253 -0.42190397 16.727942
-24.122206 -3.0859616 -0.43015456 19.034092
-24.160418 -3.2990863 -0.42448699 15.833334
-24.481255 -2.9269805 -0.17893928 22
-24.400126 -3.2851586 -0.25184578 20.333334
-24.313686 -3.0475302 -0.20255518 30.227272
-24.338072 -3.2051506 -0.19492084 23.666668
-24.196661 -2.8417053 -0.44578502 19.65
-24.162121 -3.1308932 -0.43488529 22.608383
-24.175053 -3.4553926 -0.42907825 16.263157
-24.325932 -2.9335804 -0.25821999 30
-24.219963 -3.1107087 -0.18737683 29.056141
-24.345474 -2.8726664 -0.37879246 18.346405
-24.291508 -3.1242576 -0.35969818 22.666666
-24.343027 -3.4565706 -0.35676366 14.5
-24.127342 -3.1252785 -0.37869787 22.774117
-24.33728 -2.9197676 -0.17419344 25.5
-24.320293 -3.0190573 -0.1169225 20.136364
-24.25024 -3.0518785 -0.10624701 21.676472
-24.572062 -2.9039602 -0.51695836 10.833333
-24.13339 -3.0189106 -0.48294866 19.75
-24.127775 -3.3062642 -0.47552872 17.028572
-24.556093 -2.9494276 -0.41051227 24
-24.166031 -3.038753 -0.24923837 30.439268
-24.151787 -3.2421503 -0.24075633 24.994049
-24.430441 -2.8725402 -0.46081638 11.769231
-24.368492 -3.3223352 -0.45213681 14
-24.167494 -2.9986944 -0.45533395 16.8125
-24.152634 -3.298317 -0.45499182 13.669118
-24.436489 -2.8899608 -0.27402359 29.5
-24.295174 -3.0250678 -0.20596421 29.229486
-24.288176 -3.2187729 -0.20450789 24.015873
-24.335266 -3.1279836 -0.46797985 21.75424
-24.449324 -3.4381833 -0.48763537 11.616666
-24.494879 -2.9192619 -0.27576822 29.416668
-24.390806 -3.1140738 -0.21338737 23.607199
-24.485487 -3.3754797 -0.31292504 17
-24.452969 -2.9220157 -0.33399004 23
-24.372852 -3.3818185 -0.37873995 16
-24.27268 -3.0236135 -0.34661883 27.089697
-24.223824 -3.222332 -0.34478307 22.86491
-24.44128 -2.9939806 -0.11610496 15
-24.313864 -3.0373104 -0.10053653 25.5
-24.283936 -3.1769671 -0.099742353 28.111111
-24.159607 -3.1729162 -0.49577719 22.454546
-24.23875 -2.9543672 -0.25452495 26.240555
-24.166779 -3.1329479 -0.24812502 23.661221
-24.05418 -3.1189795 -0.27063358 29.285713
-24.42239 -2.9470303 -0.55380976 17.263889
-24.394577 -3.4833722 -0.55501783 15.972222
-24.079872 -3.0957632 -0.40684059 27.120304
-24.143749 -3.367732 -0.46295425 17.023809
-24.245811 -3.1283979 -0.20116332 10.529411
-24.265629 -2.9134202 -0.44907492 22.798958
-24.308613 -3.4122066 -0.41881716 15.095238
-24.084984 -3.0530038 -0.43920434 22.470356
-24.076294 -3.3064928 -0.4371326 17.056849
-24.285381 -2.9929743 -0.18856108 19.747862
-24.27449 -3.2872233 -0.18012476 15.7
-24.143955 -3.0667684 -0.19722593 31.9375
-24.141171 -3.237031 -0.19364959 24.666668
-24.259382 -3.0074549 -0.42975092 25.079264
-24.234354 -3.3073611 -0.4649176 18.347893
-24.036865 -3.0365651 -0.50969148 22.407547
-24.047903 -3.2612224 -0.4872756 23.612904
-24.28513 -3.0552282 -0.22466898 22.905983
-24.260738 -3.2163 -0.21954346 19.5625
-24.470955 -2.8814266 -0.46290529 22.746666
-24.244493 -2.9929204 -0.46460789 24.729204
-24.230471 -3.2549038 -0.46135461 17.835333
-24.459316 -2.9718661 -0.21707219 15.833334
-24.446127 -3.1732032 -0.17445701 11.8
-24.371908 -3.0245793 -0.19715923 20.901787
-24.284601 -3.1826096 -0.20864755 26.90909
-24.152348 -3.4247718 -0.53485018 11
-24.265007 -2.9998772 -0.37180328 25.798965
-24.260328 -3.2829309 -0.37004334 18.008673
-24.119129 -3.0396838 -0.38818169 23.99074
-24.156935 -3.2874184 -0.40543514 15.5
-24.333317 -3.0430493 -0.1334191 14.117647
-24.328827 -3.1989121 -0.12759715 10.857142
-24.341196 -3.4862897 -0.56199509 11.8
-24.073868 -2.9849458 -0.58543664 13.583255
-24.165535 -3.4499347 -0.56741673 12.571548
-24.408348 -2.9298432 -0.37877023 17.45809
-24.445961 -3.4704947 -0.50321919 10.25
-24.199505 -3.0230842 -0.38824755 26.039354
-24.200924 -3.2556477 -0.32668948 17.821104
-24.277184 -3.0745025 -0.16688758 13.375
-24.276438 -3.1829088 -0.16378278 11
-24.262503 -2.8408833 -0.53963596 14.457603
-24.162066 -3.3498979 -0.49544102 15.166666
-24.067329 -3.0116007 -0.46274167 21.950001
-24.052113 -3.193481 -0.45537257 16.996241
-24.186935 -2.9434197 -0.27014363 22.393652
-24.168154 -3.2809405 -0.2834416 16.7875
-24.064114 -3.004112 -0.28892899 26.88413
-24.030924 -3.1360068 -0.27423251 23.696297
-24.612251 -2.9534757 -0.55122185 10.555555
-24.495745 -3.0171921 -0.53693342 12.833334
-24.213511 -3.2747598 -0.46450782 17
-24.354404 -2.9159403 -0.34366488 21.050001
-24.293625 -3.0171511 -0.29678911 22.080463
-24.319553 -3.3898869 -0.33790672 12
-24.182608 -3.1427319 -0.28766668 26.259615
-24.524717 -2.9259052 -0.36737567 9
-24.5152 -3.0212486 -0.12840283 15
-24.394953 -2.9451449 -0.26723713 19.871212
-24.313951 -3.1196218 -0.18742257 21.741007
-24.341013 -3.3902252 -0.33124077 12
-24.349834 -3.0115395 -0.16368639 14.454545
-24.360075 -3.1250367 -0.14194894 12.148235
-24.529474 -3.1112561 -0.11814255 12.806452
-24.504036 -3.2348213 -0.1154449 11.2
-24.568985 -3.275033 -0.27481329 0
-24.644384 -3.2477274 -0.37772918 1
-24.623083 -3.1718283 -0.54463536 2
-24.46475 -3.334384 -0.3969118 1
-24.596014 -2.927969 -0.36053628 9
-24.618473 -3.1871033 -0.1444242 4.5
-24.510983 -3.0549526 -0.17172146 4
-24.689575 -3.1256275 -0.38387477 1
-24.563911 -3.1659813 -0.18041337 1
-24.568405 -3.2141705 -0.34335339 3
-24.689266 -3.1981277 -0.19398153 23.5
-24.479771 -3.3086205 -0.5614022 28
-24.573063 -3.0908661 -0.56562114 9
-24.671894 -3.2608681 -0.48723918 26.5
-24.574318 -3.2500954 -0.26789719 16
-24.521505 -3.255146 -0.31992137 18
-24.685865 -3.1995277 -0.27169716 21
-24.640013 -3.2315483 -0.43609965 30.5
-24.57832 -3.2724762 -0.5546211 12
-24.695883 -3.1384811 -0.50507176 15
-24.523706 -3.271534 -0.57489955 13.5
-24.553627 -3.2471352 -0.29518139 21.5
-24.511244 -3.3737259 -0.3386175 26
-24.649834 -3.2696648 -0.29851502 27
-24.672567 -3.150898 -0.63743299 4
-24.524027 -3.3593903 -0.49889213 27
-24.606419 -3.2465324 -0.38325238 25
-24.503164 -3.3027534 -0.39949268 19
-24.658398 -3.2339363 -0.35511822 29
-24.564487 -3.2583733 -0.28411114 26
-24.69788 -3.1435432 -0.23436558 18
-24.476219 -3.2736435 -0.30794501 18
-24.638313 -3.2294807 -0.25334907 27
-24.44029 -3.2808533 -0.274095 20
-24.495804 -3.3460579 -0.38983452 24.5
-24.707336 -3.2074203 -0.30883992 12
-24.527822 -3.2629585 -0.64989829 15.5
-24.518375 -3.2981453 -0.43500447 26
-24.674179 -3.2370453 -0.38103175 29
-24.635502 -3.2657928 -0.55863327 3
-24.22385 -3.2252045 -0.50682807 1
-24.526686 -3.3032532 -0.43038249 25
-24.448591 -3.2664719 -0.34147877 17.5
-24.685287 -3.1764526 -0.2617479 24
-24.579191 -3.2631454 -0.2566154 24
-24.434425 -3.3378563 -0.51375329 24
-24.604828 -3.3035202 -0.47594106 32
-24.292786 -3.2935715 -0.37916946 11
-24.581657 -3.3336678 -0.31410789 26.5
-24.509039 -3.3560944 -0.39890695 23
-24.496237 -3.3412132 -0.4682501 27
-24.644663 -3.2510033 -0.42345363 30
-24.253962 -3.1550827 -0.39276069 4
-24.572029 -3.2783585 -0.31508726 26
-24.501522 -3.3299217 -0.37011433 21.5
-24.458309 -3.237896 -0.29751933 17
-24.691668 -3.1255684 -0.24773848 16
-24.562342 -3.2853584 -0.64427823 4
-24.420494 -3.344902 -0.5851419 21
-24.584705 -3.2956772 -0.54859805 26
-24.492262 -3.3735504 -0.44571042 26
-24.274925 -3.2807503 -0.48668122 11
-24.631405 -3.2571068 -0.41033578 25
-24.585316 -3.3072319 -0.62759548 9
-24.648193 -3.225956 -0.29035002 28
-24.412079 -3.2239952 -0.6085121 10
-24.606585 -3.2575569 -0.56271094 28
-24.538443 -3.3198738 -0.37323326 28
-24.304136 -3.1776924 -0.42350429 9
-24.435873 -3.2343369 -0.29068542 23
-24.611219 -3.2156029 -0.24549556 23
-24.571133 -3.2756615 -0.36648303 27
-24.475788 -3.2945595 -0.44311333 20
-24.627522 -3.2077866 -0.40256906 29
-24.359007 -3.3275032 -0.52971965 14
-24.62011 -3.2863808 -0.46825558 26.5
-24.403503 -3.3156815 -0.62258661 14.5
-24.649584 -3.2330589 -0.56216562 17
-24.348375 -3.3809738 -0.56486976 5
-24.517794 -3.3417778 -0.52229273 18
-24.395069 -3.3466911 -0.4428966 20
-24.564289 -3.3081551 -0.39922917 30
-24.345787 -3.100563 -0.53815955 3
-24.461168 -3.211853 -0.33689111 20
-24.634407 -3.1857262 -0.29629701 26
-24.360477 -3.3626823 -0.48534632 16
-24.541805 -3.3581123 -0.44379425 30
-24.677502 -3.2303123 -0.4054575 23
-24.481249 -3.3795052 -0.45846689 25.5
-24.21771 -3.2630615 -0.42927623 8
-24.52232 -3.3316994 -0.37379086 25.5
-24.624477 -3.2012558 -0.36468399 25
-24.294399 -3.4430084 -0.10583925 20
-24.389067 -3.4207993 -0.30971718 24
-24.409603 -3.4177437 -0.25218517 26
-24.32959 -3.4778862 -0.33111203 24
-24.476793 -3.3669281 -0.31881344 29
-24.396307 -3.3983383 -0.38641059 24.5
-24.307215 -3.3815727 -0.48655903 18
-24.485855 -3.356987 -0.46528375 30
-24.604578 -3.2179184 -0.43213338 22
-24.473015 -3.3452911 -0.29049462 18
-24.444376 -3.3779259 -0.55371487 16
-24.317844 -3.3431358 -0.23720807 24
-24.482895 -3.3132057 -0.19629115 20
-24.541088 -3.3100166 -0.54446161 26
-24.720291 -3.2062454 -0.66184437 8
-24.234432 -3.3021889 -0.29278433 10
-24.416155 -3.3412781 -0.24569714 23
-24.647236 -3.2332458 -0.37824529 21
-24.619905 -3.2268295 -0.26681036 26
-24.644657 -3.1431465 -0.37095928 13
-24.166378 -3.2870064 -0.23679823 4
-24.633423 -3.2071266 -0.44107509 9
-24.515522 -3.2934875 -0.48977149 1
-24.654856 -3.1697845 -0.45117724 5
-24.396587 -3.2030678 -0.39410901 13
-24.423563 -3.3137436 -0.32081717 11
-24.644169 -3.1942482 -0.25976938 15
-24.443386 -3.335041 -0.10725623 21.5
-24.342171 -3.3860779 -0.22743249 9
-24.491827 -3.3138428 -0.1940999 18
-24.576818 -3.2050896 -0.41290045 1
-24.599949 -3.2713432 -0.24503887 23
-24.494886 -3.2919769 -0.44979429 4
-24.634352 -3.2837563 -0.44411778 24
-24.734724 -3.2530251 -0.41355336 8
-24.260862 -3.2897072 -0.33161592 25
-24.236279 -3.2993584 -0.27080244 16.5
-24.462164 -3.2759895 -0.21619648 23
-24.318691 -3.2765846 -0.2545495 21
-24.418652 -3.2857399 -0.3075248 22.5
-24.501961 -3.3511963 -0.46485662 8
-24.653286 -3.3319702 -0.43116069 20
-24.420944 -3.2883682 -0.33627617 12
-24.335629 -3.3137932 -0.39357889 13
-24.561659 -3.260952 -0.33653808 21
-24.519398 -3.342453 -0.20406479 19
-24.612675 -3.3301735 -0.52037311 20
-24.458502 -3.3157997 -0.165272 17.5
-24.309744 -3.3030777 -0.22464281 5
-24.458696 -3.2943687 -0.18217951 4
-24.503277 -3.3260498 -0.39629865 8
-24.292284 -3.3282928 -0.22300947 1
-24.519001 -3.3003235 -0.17296088 2.5
-24.528744 -3.3401985 -0.31980288 3.5
-24.157061 -3.2951508 -0.44100559 4
-24.302984 -3.3406563 -0.39282119 18
-24.384657 -3.3456688 -0.40160322 1
-24.407078 -3.302494 -0.29820848 4.5
-24.585144 -3.3342171 -0.39011312 6.5
-24.377907 -3.304409 -0.27606654 5
-24.520874 -3.3403282 -0.43330169 4
-24.367983 -3.3134537 -0.4399761 1
-24.514545 -3.2968483 -0.39043987 4
-24.562397 -3.3335953 -0.43584681 3
-24.496857 -3.3446083 -0.41498685 3
-24.648157 -3.2325401 -0.37316394 1
-24.61949 -3.2943726 -0.63796401 1
-24.472794 -3.3254089 -0.47673893 24.5
-24.326338 -3.3116264 -0.32932442 8
-24.630388 -3.2801132 -0.26643389 11
-24.527721 -3.3276367 -0.30677557 25
-24.399448 -3.2952003 -0.20055461 18
-24.643845 -3.2902832 -0.46903157 11
-24.652042 -3.3027344 -0.46491086 9
-24.395935 -3.30616 -0.37278569 13
-24.54085 -3.3778763 -0.32371509 25
-24.691578 -3.2902451 -0.27896416 20
-24.309771 -3.2542419 -0.33962739 18
-24.527344 -3.3153 -0.26240444 21.5
-24.354473 -3.2902222 -0.44834507 5
-24.497972 -3.3734322 -0.39590847 17
-24.377657 -3.3050728 -0.42988539 2
-24.522635 -3.3564568 -0.3797859 18
-24.538845 -3.3404617 -0.3743099 18.5
-24.512415 -3.3437767 -0.39713871 19
-24.422817 -3.3167458 -0.27430272 25.5
-24.458454 -3.3100662 -0.25676095 23
-24.477417 -3.3402634 -0.39491868 24
-24.625978 -3.3162346 -0.34969866 21
-24.483385 -3.3404732 -0.4199177 1
-24.634502 -3.2927475 -0.38111055 12
-24.520605 -3.3677025 -0.35682189 13
-24.672758 -3.2681923 -0.31634641 20
-24.559816 -3.3215446 -0.38494468 26
-24.530167 -3.3174667 -0.40628374 7
-24.324947 -3.2780647 -0.30981565 23.5
-24.367338 -3.3641014 -0.52312958 4
-24.596687 -3.2868233 -0.34462702 6
-24.523052 -3.2933083 -0.23980391 25
-24.493937 -3.3082657 -0.37844253 26
-24.642445 -3.3166885 -0.33485544 25
-24.297338 -3.2888527 -0.27508533 7
-24.597382 -3.2447739 -0.19347966 22
-24.415546 -3.3241005 -0.335289 23
-24.491123 -3.3085976 -0.28587139 25
-24.410381 -3.3050957 -0.25137913 27
-24.326061 -3.2424011 -0.41413045 18
-24.624346 -3.2747269 -0.3364352 19
-24.515699 -3.3363571 -0.37173867 15
-24.550621 -3.3510399 -0.41339195 22
-24.405373 -3.2630463 -0.45956588 10
-24.702408 -3.2677345 -0.37236726 21
-24.482153 -3.3588905 -0.34671557 20
-24.334244 -3.2466507 -0.37954247 11
-24.637674 -3.2598419 -0.32012439 20
-24.534672 -3.2854195 -0.21224809 22
-24.46911 -3.3036423 -0.34662044 24
-24.69294 -3.2192307 -0.39862049 2
-24.470037 -3.3685646 -0.35878992 9
-24.625015 -3.2732925 -0.32995844 19
-24.364265 -3.2749863 -0.23719525 21
-24.370935 -3.275631 -0.24289238 24
-24.52084 -3.2999001 -0.20669448 26
-24.437759 -3.3073349 -0.42742419 12.5
-24.663656 -3.2819328 -0.36957991 23
-24.446022 -3.2979202 -0.2280035 25
-24.462452 -3.3101997 -0.21288919 23
-24.563059 -3.2174873 -0.36542487 6
-24.208878 -3.2925491 -0.34370053 23
-24.437546 -3.2859154 -0.30236673 23
-24.629551 -3.2579994 -0.44318545 1
-24.751251 -3.2577477 -0.37497675 7
-24.66917 -3.2909508 -0.2940805 21
-24.547611 -3.3133049 -0.18319464 22
-24.358471 -3.2936745 -0.30545807 22
-24.539459 -3.3334732 -0.32543242 25
-24.438999 -3.3395424 -0.32640421 12.5
-24.357029 -3.316658 -0.24662828 25
-24.559349 -3.3408928 -0.36274838 8
-24.714725 -3.2378426 -0.33130765 16
-24.662226 -3.3464966 -0.35275424 20.5
-24.419636 -3.2552414 -0.27491164 20
-24.565994 -3.317852 -0.23683023 26
-24.523355 -3.3180199 -0.61666429 15.333333
-24.452162 -3.3175468 -0.15031171 22
-24.24894 -3.2107849 -0.45501781 14
-24.271515 -3.2393532 -0.081951499 8
-24.257359 -3.2347603 -0.24612874 11.5
-24.202969 -3.2261086 -0.41746086 22.5
-24.481562 -3.2914162 -0.18124318 6
-24.607265 -3.4005928 -0.47216046 26
-24.303972 -3.2709732 -0.35093635 15
-24.453455 -3.3181648 -0.32209986 8
-24.24317 -3.2559624 -0.70767897 25
-24.097548 -3.0834885 -0.21148044 8
-24.290104 -3.2563019 -0.26253128 25.5
-24.556345 -3.2551041 -0.21912551 2
-24.377317 -3.2965927 -0.70370138 17
-24.315311 -3.3025665 -0.20667949 23.5
-24.597305 -3.2696495 -0.14162961 4
-24.352516 -3.3011589 -0.16499779 22
-24.203783 -3.1746712 -0.38870707 27
-24.401785 -3.2815552 -0.32560149 22
-24.176052 -3.0485992 -0.15594471 1
-24.245481 -3.2232437 -0.12039936 18
-24.170921 -3.0845451 -0.42607743 7
-24.332289 -3.2734451 -0.38300806 27
-24.591417 -3.2935104 -0.34500843 8
-24.353168 -3.2738647 -0.34305763 25.333334
-24.713341 -3.2817726 -0.29497051 3
-24.431404 -3.2681046 -0.54466748 12
-24.476292 -3.341011 -0.51546264 5.5
-24.301172 -3.1479683 -0.43592271 4
-24.368097 -3.318161 -0.4045535 18
-24.325808 -3.286171 -0.38365182 26
-24.491074 -3.3127022 -0.35991558 16
-24.2897 -3.2510757 -0.33323413 28
-24.270016 -3.2320366 -0.39696279 19.333334
-24.580465 -3.3122597 -0.33858696 10
-24.285248 -3.2071075 -0.508816 19
-24.540491 -3.3627472 -0.44667459 17
-24.37182 -3.1850052 -0.45758447 14.333333
-24.263466 -3.0376205 -0.22237891 15
-24.339611 -3.2858315 -0.43893784 6
-24.523777 -3.2850304 -0.40762299 9
-24.238655 -3.1346245 -0.4444581 15.5
-24.359196 -3.3355751 -0.39721188 26
-24.550419 -3.3268471 -0.3681539 6
-24.321245 -3.2636719 -0.72273231 3
-24.565323 -3.3053322 -0.67731404 7
-24.099379 -3.0153351 -0.43422899 9
-24.233141 -3.1894608 -0.38872752 28.5
-24.344301 -3.2763519 -0.46504441 23
-24.259834 -3.2342987 -0.25333685 29
-24.122055 -3.0445671 -0.40085202 16
-24.312115 -3.2567482 -0.34182447 24.5
-24.202698 -3.1553421 -0.46071631 23.5
-24.421478 -3.3313217 -0.39452475 19
-24.290979 -3.3424873 -0.1541888 26
-24.50992 -3.2928848 -0.53434837 4
-24.259073 -3.1425552 -0.28883892 21.333334
-24.261629 -3.187149 -0.4311704 18
-24.446815 -3.4021149 -0.36621529 20.5
-24.26849 -3.202858 -0.55917525 28
-24.401127 -3.3668022 -0.51629746 27.5
-24.16711 -3.0114403 -0.61221898 17.5
-24.350851 -3.224556 -0.56138676 21.5
-24.268078 -3.2309341 -0.37409228 26
-24.258619 -3.1106472 -0.63245904 22.5
-24.420557 -3.2460918 -0.5984112 19
-24.347946 -3.2932644 -0.52486902 5
-24.528458 -3.3156204 -0.50272757 3
-24.30851 -3.2885265 -0.35416055 22.5
-24.295477 -3.2428341 -0.20467974 18
-24.207655 -3.1333904 -0.22649504 17
-24.375629 -3.4412746 -0.22624026 3
-24.399052 -3.3710232 -0.7147544 10
-24.204151 -3.0803566 -0.5096156 25
-24.385265 -3.3017254 -0.47032756 21
-24.453014 -3.5173454 -0.60000682 1
-24.678707 -3.1297188 -0.66770095 1
-24.578115 -3.3811913 -0.57085073 12.5
-24.499546 -3.510149 -0.48359835 19.5
-24.195791 -3.1270905 -0.42805514 14.666667
-24.33811 -3.0221272 -0.40185869 8
-24.341314 -3.1953869 -0.37538183 13
-24.247341 -3.0845146 -0.33981216 19
-24.42672 -3.3160419 -0.30709064 11
-24.36182 -3.29883 -0.44793507 18
-24.267138 -3.1128483 -0.52639556 14
-24.410295 -3.2811279 -0.50304961 12
-24.299877 -3.2228699 -0.22415034 11
-24.229984 -3.2186489 -0.38386202 12.5
-24.254131 -3.1590347 -0.64902842 12.5
-24.401886 -3.3194408 -0.62357485 10
-24.18862 -3.1501694 -0.26896489 11
-24.163937 -3.0398769 -0.19439623 7
-24.226051 -3.2585773 -0.16008684 11.5
-24.126106 -3.0822906 -0.15211648 11
-24.242989 -3.2647724 -0.11767739 15
-24.299274 -2.9630318 -0.4375329 5
-24.30505 -3.220747 -0.39401674 12.5
-24.226101 -3.2518616 -0.035635311 14
-24.299328 -3.3290768 -0.48579836 3
-24.362556 -3.1050415 -0.21506132 14
-24.313904 -3.2395782 -0.38368583 20.5
-24.504532 -3.3673382 -0.33985829 10
-24.163244 -3.2675209 -0.18497097 28
-24.289465 -3.4362526 -0.14368451 22
-24.245258 -3.1194115 -0.38215765 21
-24.318665 -3.2374916 -0.3537105 28
-24.401917 -3.3495293 -0.32523331 28
-24.426302 -3.3695621 -0.39086968 4
-24.545294 -3.458374 -0.35815722 1
-24.306129 -3.0838776 -0.2740621 23
-24.256746 -3.1995277 -0.29648542 29
-24.400789 -3.3526783 -0.25389147 23
-24.261244 -3.2133141 -0.41571561 17.75
-24.253235 -3.1046772 -0.28327495 20
-24.308029 -3.3061104 -0.24250586 31
-24.440407 -3.3862324 -0.21542056 10
-24.259262 -3.1966743 -0.16416217 27.5
-24.290855 -3.0256786 -0.53102422 10
-24.295925 -3.2503395 -0.48627925 25
-24.458202 -3.3891182 -0.44322133 9
-24.293577 -3.166584 -0.51027578 23
-24.295799 -3.0335579 -0.034726258 16
-24.299202 -3.1705971 -0.00350487 13
-24.205128 -3.2063618 -0.21540786 19.5
-24.273865 -3.3791962 -0.1647525 18
-24.333221 -2.9860592 -0.27581978 13
-24.381542 -3.2333031 -0.20263338 24.333334
-24.253698 -3.0848236 -0.42716536 22
-24.348413 -3.2410107 -0.36747345 32.5
-24.270584 -3.2241306 -0.19787323 27.333334
-24.273714 -3.1217098 -0.49870422 24
-24.37813 -3.34062 -0.4340699 25.5
-24.254662 -3.3160763 -0.074383289 24.666666
-24.271507 -3.1847324 -0.219533 19
-24.259224 -3.2294645 -0.53025621 23.333334
-24.322905 -3.0175743 -0.18122533 16
-24.171524 -3.0249777 -0.45672029 11
-24.133869 -3.2248182 -0.41720051 19.5
-24.365322 -3.0202913 -0.49734983 10
-24.291485 -3.2224607 -0.45550117 19
-24.391632 -3.3670092 -0.41539392 19
-24.371588 -3.2797041 -0.56616837 19.666666
-24.416458 -2.9028606 -0.37367454 11
-24.298943 -3.2362709 -0.31296793 22
-24.260792 -3.1025162 -0.45032674 16
-24.406715 -3.3484592 -0.38728029 11
-24.26042 -3.2025633 -0.40532586 8
-24.34907 -3.2907009 -0.37852666 16
-24.48358 -3.365881 -0.351675 9
-24.294247 -3.0282288 -0.46845859 18
-24.336075 -3.2425156 -0.4105987 20
-24.377522 -3.0760088 -0.47642818 16.666666
-24.400116 -3.2941132 -0.42833677 18
-24.524376 -3.3736277 -0.40518489 9
-24.198406 -3.1711402 -0.16470964 14
-24.184669 -3.1374907 -0.49807104 8.5
-24.276363 -3.2792406 -0.4649013 26
-24.181648 -3.210269 -0.15303451 29
-24.309124 -3.3453579 -0.12115937 16
-24.220097 -3.2736883 -0.3364298 3
-24.296246 -3.3674064 -0.32283756 10
-24.379517 -3.3063669 -0.61370224 13
-24.329144 -2.9927254 -0.47617769 23
-24.290985 -3.1572242 -0.4450593 31
-24.433258 -3.3425021 -0.40615416 14
-24.355663 -3.0550432 -0.46096253 28.5
-24.299854 -3.0008383 -0.28422123 26
-24.379532 -3.1418877 -0.26733547 25.5
-24.455509 -3.0809646 -0.2732926 19.5
-24.398926 -2.9443054 -0.5195545 28
-24.44791 -3.0882077 -0.50488698 26
-24.501633 -3.0023544 -0.19717395 18.5
-24.381001 -2.9679008 -0.5551641 16
-24.313425 -3.122375 -0.54001546 29
-24.412642 -2.9202065 -0.30924404 18
-24.324741 -3.187006 -0.28218973 21
-24.317406 -2.9975147 -0.3452515 18
-24.299368 -3.1907768 -0.33242124 26.5
-24.27346 -3.3009124 -0.26114687 24
-24.166609 -3.3720584 -0.44329643 28
-24.339848 -3.0402515 -0.32012218 18
-24.210304 -3.1461329 -0.30765146 23
-24.254082 -3.2797153 -0.28998512 26
-24.202911 -3.3390796 -0.57372355 5.5
-24.439926 -3.4540107 -0.55947232 4
-24.265642 -3.1553378 -0.373346 20
-24.102556 -3.3040798 -0.35630861 29
-24.375591 -3.0164719 -0.41272548 17
-24.216055 -3.2072437 -0.38754037 24.333334
-24.349028 -2.9848545 -0.28964722 22
-24.427858 -3.1945324 -0.25267756 22
-24.321354 -2.996103 -0.28492928 20
-24.249863 -3.1295404 -0.25842571 26
-24.191366 -3.2365737 -0.35812914 25
-24.191757 -3.255074 -0.30393049 27.333334
-24.342003 -3.033041 -0.33986446 11.5
-24.295883 -3.0983944 -0.44590059 21.666666
-24.366232 -3.3012776 -0.40945879 19.5
-24.307388 -3.0114696 -0.31290817 26.666666
-24.340494 -3.177124 -0.28653717 27
-24.196083 -3.2703688 -0.11363605 31
-24.213497 -3.2183537 -0.61194682 16.75
-24.29657 -3.0672235 -0.34586155 25
-24.246161 -3.1887832 -0.32378447 29
-24.381804 -2.9840934 -0.36067879 22
-24.376911 -3.385947 -0.2868582 26
-24.207251 -2.9452889 -0.62076318 12.5
-24.414837 -3.1001489 -0.58993518 17.5
-24.104053 -3.2111077 -0.44547477 8
-24.302277 -3.3649247 -0.40988126 18.333334
-24.22327 -3.1726999 -0.36592135 19
-24.128494 -3.2915721 -0.34376559 27
-24.143293 -3.4485798 -0.3148168 26.5
-24.280674 -3.0964034 -0.26052833 25
-24.246614 -3.2134938 -0.23812269 28.5
-24.296062 -3.1894636 -0.51663166 22
-24.620647 -3.3512733 -0.49021488 3
-24.335438 -3.0560658 -0.43398368 23.333334
-24.359825 -3.0055399 -0.38253236 26.333334
-24.221067 -3.1536987 -0.35627389 29
-24.287214 -3.2698255 -0.33734059 26
-24.323709 -3.0396061 -0.32750767 27.5
-24.463591 -2.8780961 -0.32899278 21
-24.358683 -3.0597997 -0.29944128 23.333334
-24.176846 -3.0634918 -0.36789221 22
-24.176107 -3.2059429 -0.36654514 24
-24.25108 -3.0574138 -0.1194997 18.5
-24.22514 -3.2862446 -0.1159711 19
-24.068487 -3.0864103 -0.42926806 7.4000001
-24.248678 -3.0616834 -0.099435046 20.799999
-24.282806 -3.3162937 -0.10160466 17
-24.192898 -3.1407654 -0.1352748 21.4
-24.177296 -3.1072509 -0.32118225 27.333334
-24.210278 -3.2906764 -0.32377481 24
-24.207451 -3.0572553 -0.02738715 17.5
-24.183796 -3.2331171 -0.02953482 23
-24.251207 -3.0081544 -0.30917162 23
-24.194941 -3.1684418 -0.31076044 21.333334
-24.577293 -2.9695497 -0.37720641 6
-24.244011 -3.2194576 -0.37678775 15.4
-24.174824 -3.1570864 -0.27917778 21.75
-24.261576 -3.3464363 -0.28094304 16
-24.411842 -3.0181217 -0.25526112 24.5
-24.351721 -3.2255092 -0.24978463 22.75
-24.272787 -3.0587835 -0.28402531 25
-24.270948 -3.2699664 -0.27925742 23.5
-24.117685 -3.0995023 -0.42005527 16.333334
-24.12182 -3.0449433 -0.02172409 9
-24.131832 -3.2551312 -0.01705586 4
-24.135555 -3.0740776 -0.28866971 23
-24.568884 -2.9531665 -0.30194294 6
-24.323956 -3.0643592 -0.18088324 23.5
-24.375046 -3.2951427 -0.1717995 21
-24.275263 -3.0381265 -0.37380511 22.5
-24.239992 -3.1709895 -0.36917192 27.5
-24.114784 -3.1438944 -0.27919778 25.799999
-24.165636 -3.0791492 -0.22369894 26
-24.178844 -3.2477267 -0.21729335 22.25
-24.453655 -2.9074805 -0.41795924 10.25
-24.519857 -3.4178331 -0.39854363 14.666667
-24.239229 -3.144083 -0.4023824 23.5
-24.222486 -3.1249132 -0.03236416 23
-24.216223 -3.2556551 -0.026460679 15
-24.584332 -2.8848164 -0.37595117 11.25
-24.323669 -3.0461793 -0.35631931 23
-24.30352 -3.2057042 -0.3452276 26.5
-24.326832 -3.0861659 0.01184426 18
-24.330772 -3.2163212 0.02057134 12
-24.289204 -3.0024664 -0.13950604 24
-24.189198 -3.0844233 -0.13359565 25
-24.12793 -3.203043 -0.12660831 25.5
-24.432812 -3.0007434 -0.27617323 25
-24.293308 -3.1530855 -0.26615751 23.75
-24.340122 -3.3633516 -0.25802052 21
-24.426455 -3.1618958 -0.29624486 24
-24.115314 -3.0761044 -0.21233037 20.761904
-24.07032 -3.2884693 -0.044649389 25
-24.288378 -3.1135461 -0.19377884 25
-24.330013 -3.4535987 -0.19953451 20
-24.19244 -3.2516246 -0.1934422 24.333334
-24.417875 -3.0738571 -0.25965112 28
-24.306322 -3.2315643 -0.25006074 24.799999
-24.492435 -3.4317441 -0.3372325 17
-24.310068 -3.0543218 -0.33367291 17
-24.24605 -3.2553351 -0.32999602 27
-24.290514 -3.0763021 -0.01113287 23.5
-24.237183 -3.2972915 -0.0079587996 26.5
-24.317673 -3.052753 -0.22078726 28
-24.186195 -3.2587557 -0.2087836 26.4
-24.263611 -3.1036198 -0.29201043 26
-24.176634 -3.2280424 -0.28996074 27.333334
-24.292053 -3.107281 -0.14186844 26.166666
-24.297487 -3.3974435 -0.13777646 20
-24.159151 -3.211467 -0.1361576 28
-24.075211 -3.122412 -0.26324496 26.75
-24.074047 -3.3073466 -0.2669054 23
-24.191067 -3.1011834 -0.13062547 27
-24.199072 -3.3220222 -0.12786172 20.333334
-24.352501 -3.16153 -0.13902156 27.25
-24.370451 -3.3429987 -0.1351022 22.333334
-24.337337 -3.1221209 -0.34092563 20.166666
-24.29945 -3.495549 -0.34382552 13.428572
-24.193125 -3.11994 -0.057968561 26.5
-24.168652 -3.289103 -0.059106529 23
-24.123266 -3.142 -0.12640911 26
-24.18288 -3.3377497 -0.12915903 21
-24.206669 -3.009253 -0.18003504 26
-24.112198 -3.0876009 -0.17643182 27.666666
-24.087784 -3.2249646 -0.17388694 24.666666
-24.564121 -2.9441702 -0.38347518 10
-24.36483 -3.0320706 -0.36937225 19.75
-24.286974 -3.2410359 -0.35844719 28
-24.298155 -3.0716503 -0.10405576 26.75
-24.22328 -3.220768 -0.095851779 27
-24.235332 -3.1483455 -0.2621392 26.166666
-24.265057 -3.16432 -0.0056096301 27
-24.190338 -3.1997809 -0.41301706 28
-24.178123 -3.1620274 -0.16238716 25.875
-24.284605 -3.0282681 -0.33173209 29
-24.22488 -3.1881025 -0.20209724 27.566666
-24.263798 -2.9689276 -0.22831118 28
-24.238792 -3.3874362 -0.2211107 22
-24.207916 -3.0223136 -0.22540605 28.5
-24.124592 -3.2103109 -0.2193104 24.666666
-24.256088 -3.0347526 -0.39075693 27
-24.223049 -3.3203132 -0.37954912 20
-24.226547 -3.0405881 -0.15749583 30
-24.179768 -3.189887 -0.26582107 27.6
-24.306196 -3.0027933 -0.24399003 28.5
-24.287689 -3.3788371 -0.21744832 22
-24.206423 -3.0837855 -0.23342285 28.333334
-24.04229 -3.3393717 -0.31684336 17.125
-24.252979 -3.075345 -0.0097013405 23
-24.27951 -3.2191153 -0.00044665 11.5
-24.150169 -3.1011341 -0.33213013 29.428572
-24.185345 -3.3045628 -0.32424325 23
-24.161072 -3.1161673 -0.11368078 28.625
-24.109486 -3.0923696 -0.36798728 27
-24.081745 -3.2266355 -0.36088812 28
-24.581427 -2.9346385 -0.40445244 9.7142859
-24.104765 -3.0450892 -0.15618575 28.6
-24.062859 -3.2493701 -0.14540684 25.4
-24.631571 -2.9734268 -0.45215577 9.25
-24.197727 -3.156929 -0.41094917 26.142857
-24.178787 -3.1020985 -0.20398802 28.111111
-24.204134 -3.3281622 -0.19340032 22
-24.594307 -2.9637818 -0.47262681 13.714286
-24.33917 -3.2859783 -0.42822862 21
-24.330868 -3.1569059 -0.43738055 27.5
-24.320715 -3.2274308 -0.43122053 28
-24.412956 -2.9898193 -0.25240147 28
-24.306053 -3.0952957 -0.23751473 28.833334
-24.322922 -3.2737901 -0.22441733 23
-24.211826 -3.0087545 -0.33926785 20.15
-24.202143 -3.3272464 -0.3277986 17.325001
-24.088032 -3.1403491 -0.22820306 27
-24.211725 -3.0861483 -0.04274774 26
-24.198322 -3.2065561 -0.03726447 21.333334
-24.010258 -3.090152 -0.35209197 26.5
-24.060238 -3.2912347 -0.35041636 22
-24.033398 -3.0872579 -0.16623658 28.75
-24.041649 -3.2785552 -0.16085118 23
-24.269825 -3.0303452 -0.31422371 26.916668
-24.225582 -3.286243 -0.30045265 21.833332
-24.179235 -3.1683152 -0.30222076 28.333332
-24.186485 -3.2305923 -0.20909661 27
-24.125904 -3.423305 -0.54580748 11.4
-24.344315 -3.118052 -0.32807529 26.163635
-24.390919 -3.3215423 -0.40479314 22
-24.181858 -3.0760517 -0.41443032 18.166666
-24.270184 -3.4818895 -0.4059965 10.7
-24.13166 -3.107363 -0.15326762 27.742424
-24.207047 -3.3458693 -0.23342013 21
-24.20756 -3.093816 -0.25030968 21.733332
-24.211639 -3.2715857 -0.24289641 16.805555
-24.492367 -2.9880822 -0.39068058 16
-24.247383 -3.1350193 -0.20249078 20.037294
-24.120968 -2.9174385 -0.44290686 10.571428
-24.135599 -3.3261437 -0.43259263 10.769231
-24.391941 -2.9736676 -0.2452327 27.166668
-24.349546 -3.3245058 -0.30503827 21
-24.280165 -3.0664296 -0.23122495 27.125
-24.266624 -3.1969264 -0.22521293 25.200001
-24.125725 -3.1227355 -0.46273357 27.555555
-24.117176 -3.2778459 -0.45879894 22
-24.14852 -3.0895562 -0.24622536 26.85
-24.144772 -3.2995634 -0.24075639 23.416668
-24.041771 -3.1585734 -0.30816877 29.333334
-24.024704 -3.085254 -0.50092769 9.9285717
-24.336754 -3.0912781 -0.26044372 28.264395
-24.350035 -3.3227558 -0.32756326 19.25
-24.250425 -3.1649475 -0.25191918 26.6
-24.469763 -2.9992685 -0.43867558 10.666667
-24.252617 -3.1484189 -0.33903366 25.005953
-24.302299 -3.3595114 -0.27155918 21
-24.243822 -3.1350565 -0.13639653 27.571428
-24.272507 -2.9671044 -0.39792854 19
-24.213125 -3.4080927 -0.38352799 21
-24.148806 -2.8610377 -0.51251763 9
-24.080566 -3.0942357 -0.31004202 24.045387
-24.092361 -3.371294 -0.37025678 16.655556
-24.413282 -2.8608842 -0.47439551 11.066667
-24.362417 -3.4272847 -0.4622249 11.75
-24.26594 -3.0149367 -0.32996351 25.916666
-24.197868 -3.1989062 -0.31927872 24.103029
-24.276066 -3.0180197 -0.088015907 21.25
-24.233791 -3.1718311 -0.080664992 26.444445
-24.409689 -3.0533369 -0.50549185 19.210526
-24.373615 -2.9922128 -0.26681975 23.888887
-24.33511 -3.3334932 -0.3115932 19.666668
-24.261787 -3.1275942 -0.24957439 26.591667
-24.279478 -3.2484183 -0.24847463 20.333334
-24.320141 -2.9897795 -0.29556707 21.775
-24.271324 -3.4082227 -0.34555176 16.70635
-24.153826 -3.1429291 -0.27437326 27.084616
-24.178757 -3.2970679 -0.27697632 19.5
-24.262188 -2.8987503 -0.41832387 19.013157
-24.210159 -3.1924429 -0.40874666 18.733082
-24.277117 -2.9679964 -0.21193236 27.366667
-24.249985 -3.1707454 -0.15269923 19.133333
-24.287035 -3.4124327 -0.26007527 16
-24.140951 -3.1463718 -0.19062287 27.017483
-24.40506 -2.8794184 -0.41314602 21.924601
-24.377834 -3.0680141 -0.42144179 22.00094
-24.435064 -3.3816044 -0.37345076 16
-24.230082 -3.1503038 -0.43926799 20.129522
-24.427883 -3.1522045 -0.23145568 17.333332
-24.34943 -3.2033482 -0.2187801 22.933334
-24.246805 -2.9803483 -0.27305341 24.748486
-24.199551 -3.2231963 -0.25871205 21.548882
-24.106203 -3.1356196 -0.24315214 26.5
-24.309757 -2.9698164 -0.34306681 24.058332
-24.259359 -3.2617621 -0.36180449 17.541666
-24.225876 -3.0531437 -0.19617224 29.166666
-24.197073 -3.1449113 -0.22713017 25.762627
-24.42741 -3.0317597 -0.10560173 12
-24.439093 -3.1552157 -0.099662542 10.1
-24.359259 -2.9737077 -0.51256567 20.498106
-24.313421 -3.2476702 -0.50674725 16.128889
-24.380962 -2.9982181 -0.28169036 26.056444
-24.316998 -3.198833 -0.26914871 23.934473
-24.145647 -3.102035 -0.46592045 15.388889
-24.350595 -2.9095023 -0.26223296 25.5
-24.193384 -3.0908 -0.2255156 25.151678
-24.237906 -3.3433189 -0.27361441 14.25
-24.43327 -3.1072655 -0.0560739 10.4
-24.063211 -3.4390838 -0.45696312 13.631466
-24.513687 -2.9146752 -0.4508763 12.373016
-24.156324 -3.0290139 -0.27727038 25.361547
-24.117903 -3.2579842 -0.26559907 21.033863
-24.238173 -3.0535426 -0.062745087 13.823529
-24.21084 -3.2168114 -0.051164869 10.857142
-24.162874 -2.8978286 -0.42141509 12.08961
-24.156496 -3.3082447 -0.41169286 16.165827
-24.404396 -3.4574227 -0.40109825 14
-24.275059 -3.0058589 -0.18594712 28.824936
-24.218119 -3.2045808 -0.17440069 23.609245
-24.492271 -3.0016656 -0.02171463 17
-24.412424 -3.0410371 -0.0037010901 12.7
-24.406662 -3.1771331 -0.00097805005 11.9
-24.194414 -3.0458617 -0.43717527 17.321665
-24.19211 -3.4309487 -0.44511116 13.702474
-24.547112 -2.9739604 -0.20483577 13.791666
-24.451761 -2.8826969 -0.26884878 19
-24.331852 -3.0639284 -0.15456808 24.589905
-24.314699 -3.3107514 -0.21706676 14.666667
-24.438457 -2.9925635 -0.5849942 12.78605
-24.080412 -3.0805469 -0.56134343 20.435051
-24.061911 -3.4372392 -0.57523417 12.206315
-24.356844 -2.9797673 -0.32155213 14.339999
-24.192053 -3.1052768 -0.27937421 23.164312
-24.177092 -3.3555408 -0.36822394 9.75
-24.509346 -2.9236207 -0.40481317 18.96875
-24.358515 -3.0646548 -0.38792497 22.706511
-24.52397 -2.9304497 -0.27718878 16.799999
-24.436314 -3.0910709 -0.17858112 18.761515
-24.575609 -2.9354343 -0.22966081 18.910147
-24.430481 -2.9754071 -0.1671266 25.596973
-24.337093 -3.0954733 -0.14710182 22.878231
-24.578474 -2.9850538 -0.074614704 17.740742
-24.465181 -2.9974694 -0.04958111 19.857143
-24.426704 -3.1529434 -0.03626138 14.949107
-24.473732 -3.0839314 -0.20995542 13.944243
-24.435932 -3.2067542 -0.20760319 13.032967
-24.369232 -3.1038361 -0.20942405 13.357142
-24.331211 -3.2300639 -0.21053889 12.71
-24.649199 -3.2321765 -0.14733124 10.666667
-24.604553 -3.2869873 -0.149046 11.615385
-24.624052 -3.1417563 -0.49220663 0
-24.684282 -3.132592 -0.15530717 20
-24.574255 -3.2507377 -0.32361817 1
-24.322697 -3.3706684 -0.36624312 12
-24.528801 -3.2747993 -0.31942677 19.5
-24.642317 -3.2717934 -0.30540401 1
-24.595331 -3.2376671 -0.4804576 10
-24.494432 -3.3485184 -0.45223314 21
-24.637556 -3.2624054 -0.4193415 27
-24.606453 -3.2615318 -0.28303486 20.5
-24.430336 -3.2994957 -0.24102086 20
-24.565928 -3.2506676 -0.62510896 15
-24.621223 -3.0955811 -0.61788958 4
-24.601805 -3.2855263 -0.5207662 22
-24.64138 -3.2502899 -0.60631973 13
-24.356417 -3.2421608 -0.43428391 3
-24.706194 -3.2054176 -0.32896847 28
-24.40202 -3.1920242 -0.49688756 5
-24.574646 -3.316925 -0.50762916 27
-24.710905 -3.2170601 -0.46477437 28
-24.499435 -3.2439957 -0.30910659 21
-24.403797 -3.2981834 -0.53300124 14
-24.633585 -3.209137 -0.44873387 14
-24.453667 -3.3238258 -0.28316599 28
-24.290472 -3.3663635 -0.3331874 18
-24.690855 -3.2197914 -0.2850765 19
-24.358521 -3.2846031 -0.55914414 9
-24.62207 -3.2573051 -0.49457359 26.5
-24.586517 -3.2522163 -0.35231864 22
-24.508165 -3.2944336 -0.47338068 22.5
-24.537142 -3.2895584 -0.38651097 22
-24.685806 -3.1995201 -0.34716046 27
-24.552345 -3.3035278 -0.44924796 22
-24.300306 -3.1169472 -0.4961096 3
-24.695431 -3.198452 -0.41044295 28
-24.614231 -3.2284927 -0.51418525 23.333334
-24.284876 -3.156002 -0.46144325 2
-24.678524 -3.2377701 -0.37460595 27
-24.334221 -3.2247467 -0.5464645 9
-24.691978 -3.2131882 -0.46187502 28
-24.445343 -3.2449455 -0.38542461 17.5
-24.508547 -3.2232018 -0.40260911 19
-24.498526 -3.2796822 -0.67348844 2
-24.662249 -3.2346344 -0.62923557 8
-24.426437 -3.2699623 -0.50202018 16.5
-24.679022 -3.2211914 -0.43422157 27
-24.504904 -3.2976494 -0.52426046 24
-24.662878 -3.2378769 -0.47969717 29
-24.624516 -3.2553596 -0.53103095 26.5
-24.605841 -3.236412 -0.61340833 21.5
-24.568718 -3.2527161 -0.59959447 21
-24.571655 -3.3041077 -0.4535858 27
-24.537531 -3.2125626 -0.45607632 18.5
-24.590925 -3.2454453 -0.63571846 12.5
-24.582243 -3.2143936 -0.66167694 4
-24.601955 -3.2523689 -0.59670192 24.5
-24.699711 -3.1949463 -0.66649902 5
-24.577938 -3.2553635 -0.66609657 5
-24.522141 -3.3384514 -0.4226495 23
-24.278603 -3.1703682 -0.47349513 4
-24.668924 -3.2487259 -0.37877095 27
-24.560932 -3.2993774 -0.47573668 24
-24.626165 -3.2341385 -0.62275648 16
-24.350658 -3.1491127 -0.50897038 8
-24.658131 -3.2484894 -0.43586123 28
-24.627596 -3.2713928 -0.4254936 29
-24.596369 -3.1873055 -0.42772186 19.5
-24.63205 -3.2385826 -0.36407447 17.666666
-24.600035 -3.2591133 -0.2530418 23
-24.403641 -3.217926 -0.29937559 9
-24.460993 -3.235733 -0.56247628 15
-24.720465 -3.1978683 -0.50028002 29
-24.71739 -3.2108765 -0.6371296 20
-24.511332 -3.2541885 -0.66664606 17
-24.686764 -3.2351303 -0.62671572 26
-24.433687 -3.3680267 -0.43743497 19
-24.585213 -3.2810898 -0.40606195 27
-24.326046 -3.2757912 -0.57752287 11
-24.533539 -3.3384132 -0.54282105 27
-24.677088 -3.2291527 -0.51326287 24
-24.554497 -3.2352295 -0.73063898 11
-24.565145 -3.1863098 -0.63005507 14
-24.517694 -3.2555389 -0.63163102 23
-24.689011 -3.2218857 -0.60409558 26
-24.398588 -3.1735229 -0.37369794 10
-24.667393 -3.1617126 -0.31769389 20.5
-24.580662 -3.2900009 -0.73830295 16
-24.485168 -3.5230331 -0.57075977 26
-24.287724 -3.48209 -0.60885191 6
-24.624546 -3.4069786 -0.53724194 26
-24.442644 -3.3264809 -0.66975403 19
-24.608364 -3.2755127 -0.64716601 29
-24.46269 -3.261116 -0.31868881 18
-24.694403 -3.1449432 -0.27785343 11
-24.590971 -3.2389221 -0.74816656 2
-24.350906 -3.3166542 -0.52232647 20
-24.591084 -3.2527428 -0.47775269 15.5
-24.510174 -3.2853851 -0.39576685 27
-24.656487 -3.1933708 -0.36249363 15
-24.41354 -3.2774696 -0.29033709 3
-24.476824 -3.2665901 -0.55747902 20
-24.090679 -3.4172897 -0.38356555 21.5
-24.11161 -3.3768883 -0.39682126 23
-24.269163 -3.3960571 -0.37950063 27
-24.185394 -3.3631096 -0.31340373 20
-24.355991 -3.2349739 -0.28328168 7
-24.50182 -3.294281 -0.26042712 23
-24.614693 -3.2858887 -0.72213113 18
-24.162489 -3.2242088 -0.24635899 18
-24.311506 -3.2762299 -0.24440348 22
-24.234753 -3.2082558 -0.35355246 4
-24.389244 -3.2531319 -0.086211137 4
-24.539963 -3.2997742 -0.11075157 6
-24.60017 -3.3832855 -0.2982375 9
-24.503262 -3.2840881 -0.2433126 5.5
-24.21484 -3.2572479 -0.36110198 27
-24.237549 -3.2486305 -0.47325248 22.666666
-24.150904 -3.1960144 -0.33668232 30
-24.25359 -3.3251762 -0.35244966 26
-24.485018 -3.2336731 -0.37314105 11
-24.125097 -3.1384544 -0.49526662 25
-24.223551 -3.2695961 -0.50738853 25
-24.380426 -3.3057976 -0.52224702 15
-24.256248 -3.1881676 -0.70536733 4
-24.483826 -3.3339348 -0.37829363 18.333334
-24.167425 -3.1395454 -0.62588859 16
-24.361517 -3.2567368 -0.64489448 13
-24.228764 -3.2173309 -0.65467811 8
-24.451351 -3.3414154 -0.21697715 25
-24.589317 -3.4054947 -0.22075227 26
-24.217644 -3.1767273 -0.4736124 28
-24.375816 -3.3364754 -0.47913799 23.5
-24.138638 -3.1914864 -0.43552068 29
-24.427677 -3.3014641 -0.43566272 8
-24.407249 -3.1896744 -0.45701739 1
-24.519035 -3.4052925 -0.45524141 28.5
-24.189169 -3.2197762 -0.35665208 24
-24.212425 -3.1987724 -0.26304615 26
-24.45315 -3.3654404 -0.25994766 17
-24.081223 -2.9980011 -0.34339529 5
-24.186008 -3.2141457 -0.34713066 30
-24.417805 -3.2770195 -0.35359085 9
-24.060539 -3.0582581 -0.38104588 23
-24.30748 -3.2221642 -0.38188183 19.666666
-24.222504 -3.1740074 -0.5120194 16
-24.431744 -3.368969 -0.51648486 20
-24.15439 -3.131752 -0.52619398 17.666666
-24.456585 -3.4357376 -0.52063406 4
-24.363789 -3.4208069 -0.27502674 27.5
-24.115732 -3.1033134 -0.49360746 18.5
-24.325306 -3.2962379 -0.49164951 21
-24.306856 -3.3012066 -0.36061329 26
-24.309483 -3.3095131 -0.62511855 23
-24.483696 -3.4386883 -0.62276357 15.5
-24.241302 -3.2383461 -0.52556896 31
-24.296131 -3.2673073 -0.6419186 18.5
-24.482471 -3.4820766 -0.62574196 14
-24.244692 -3.2605362 -0.68543363 25.333334
-24.081549 -3.0596695 -0.56046975 22
-24.250093 -3.1013203 -0.54833162 17
-24.102472 -3.112978 -0.28709868 31
-24.261511 -3.2674446 -0.39681995 16.5
-24.358862 -3.4643078 -0.37862468 24
-24.078976 -2.942194 -0.55421758 11
-24.281223 -3.1471119 -0.52644736 9.5
-24.373859 -3.3667679 -0.28971648 17
-24.145247 -3.1166649 -0.31781721 22
-24.236506 -3.2276955 -0.30266845 22
-24.311569 -3.3306026 -0.52894276 4.666667
-24.322552 -3.3796387 -0.32861519 31
-24.107288 -3.1518269 -0.28241855 27
-24.266136 -3.3119373 -0.27452534 18
-24.191288 -3.183485 -0.085769206 8
-24.344349 -3.1207638 -0.64500427 14
-24.584232 -3.399292 -0.69419837 5
-24.114975 -3.1827412 -0.074680671 29
-24.222095 -3.2265148 -0.38397798 29
-24.359779 -3.3894806 -0.4322482 22
-24.338423 -3.2615986 -0.44549721 24
-24.572054 -3.4453468 -0.50986737 2
-24.158192 -3.1425533 -0.42331797 26
-24.286736 -3.3111172 -0.46235853 30
-24.127653 -3.122467 -0.38084623 30
-24.325674 -3.3259239 -0.43166181 19
-24.514297 -3.4930325 -0.41900849 25
-24.143486 -3.0631676 -0.62084717 27
-24.423664 -3.2184601 -0.65781087 6
-24.42907 -3.4545822 -0.26797816 28.5
-24.149246 -3.162817 -0.1936956 28
-24.229435 -3.171711 -0.48050511 27
-24.396339 -3.3966961 -0.50535929 31
-24.342354 -3.2948246 -0.31345892 31
-24.415401 -3.4079208 -0.32379985 31
-24.114086 -3.1393623 -0.32502577 27
-24.211742 -3.2384109 -0.33644411 22
-24.363914 -3.3546619 -0.2739591 29
-24.191162 -3.1220188 -0.44459793 27.5
-24.304432 -3.2828236 -0.45490476 18
-24.560169 -3.4508514 -0.46964195 3
-24.249977 -3.1129742 -0.067480832 29
-24.357941 -3.3444901 -0.090716869 21
-24.126331 -3.1222391 -0.23024347 19
-24.315878 -3.2841215 -0.16416192 19
-24.258543 -3.2328606 -0.40191215 26.5
-24.226009 -3.1797848 -0.4771423 23
-24.221785 -3.199687 -0.32209536 27
-24.202606 -3.166461 0.05823205 26
-24.162582 -2.966341 -0.42360336 20
-24.278564 -3.2310209 -0.48304754 27.5
-24.263334 -3.2236309 -0.34284699 24
-24.355989 -3.4369249 -0.38078719 24
-24.179712 -3.1112213 -0.49423578 26
-24.216345 -3.2191162 -0.51247072 30
-24.238873 -3.1842341 -0.50195867 25
-24.522972 -3.3504181 -0.54274565 3
-24.356518 -3.1972909 -0.45906365 24
-24.333782 -3.3680449 -0.47932822 31
-24.40353 -3.467021 -0.49351454 22
-24.394104 -3.078208 -0.50806928 15
-24.34137 -3.3091235 -0.52378762 27
-24.379044 -3.3138523 -0.52824986 25
-24.259193 -3.2378497 -0.39779013 27
-24.346313 -3.3881679 -0.4036569 28
-24.427784 -3.4856749 -0.40769881 10
-24.171907 -3.1521378 -0.21210001 24
-24.238201 -2.8950086 -0.33272994 3
-24.313705 -2.8904822 -0.3777048 12
-24.211544 -3.1596005 -0.42398894 24.5
-24.387764 -2.9696195 -0.44766229 21
-24.28476 -3.2198982 -0.47811174 23.666666
-24.331348 -3.2478364 -0.28039533 28
-24.150181 -3.1740725 -0.4423219 26.5
-24.277561 -3.3661842 -0.46814585 20.5
-24.294401 -3.14551 -0.34620541 26
-24.411613 -3.3877101 -0.37977839 19
-24.333763 -2.9213152 -0.40387163 21
-24.22258 -3.1239729 -0.3997618 25
-24.359818 -3.3138587 -0.39812377 16.5
-24.23991 -3.1446924 -0.51846999 23
-24.412365 -3.3871527 -0.51789492 9.5
-24.307819 -3.0297058 -0.43349913 24
-24.283316 -3.1750393 -0.4299196 28
-24.331638 -2.9276299 -0.45814854 12.5
-24.172272 -3.0741384 -0.45257884 23
-24.236216 -3.3078249 -0.44782776 25
-24.216021 -3.042172 -0.53449756 15
-24.310232 -3.3122988 -0.52079421 9
-24.242998 -3.0545599 -0.38566893 24.333334
-24.033514 -3.2119975 -0.60712147 9
-24.226608 -2.9135065 -0.60646069 6.75
-24.280441 -3.1325002 -0.19449808 25.75
-24.373343 -2.9029264 -0.4799175 7
-24.281176 -3.1556349 -0.47702226 26.666666
-24.240322 -3.0494719 -0.1674007 25
-24.264521 -3.0859499 -0.18231122 4
-24.42416 -2.8614507 -0.35152721 14
-24.272844 -3.1030667 -0.34549475 25.799999
-24.325209 -2.9435802 -0.53279924 24
-24.254423 -3.1043715 -0.53407836 24.5
-24.230612 -3.000391 -0.43179715 24.5
-24.259527 -3.2900362 -0.4331845 17.666666
-24.250896 -3.0094628 -0.46462402 26
-24.303833 -3.2982488 -0.45964918 16
-24.40407 -2.8845253 -0.31891513 17.5
-24.194767 -3.0693793 -0.31401968 28
-24.256163 -3.1954126 -0.31290555 24
-24.255753 -3.0826371 -0.16162702 21.5
-24.279192 -3.1723022 -0.51958811 27.666666
-24.312012 -2.9558768 -0.31747642 25
-24.235186 -3.1867423 -0.32185569 26.75
-24.3202 -2.9261184 -0.33929497 26
