# .PCD v0.7 - Point Cloud Data file format
VERSION 0.7
FIELDS x y z intensity
SIZE 4 4 4 4
TYPE F F F F
COUNT 1 1 1 1
WIDTH 1019
HEIGHT 1
VIEWPOINT 0 0 0 1 0 0 0
POINTS 1019
DATA ascii
-41.758091 -7.90312 -0.40667689 30
-41.732407 -7.9530888 -0.36693928 74
-41.72155 -7.957273 -0.38857713 70
-41.76384 -8.0258446 -0.32934123 11
-41.871536 -7.8910608 -0.34101838 46
-41.737652 -7.9188137 -0.47889432 45
-41.84304 -7.9621449 -0.3733688 59
-41.781406 -7.9247327 -0.33671933 66
-41.760353 -7.9042749 -0.20722455 46
-41.783691 -7.9366007 -0.2594136 68
-41.819473 -7.9156213 -0.21522725 47
-41.845627 -8.0642204 0.32983696 69
-41.765266 -7.9345241 -0.27875555 60
-41.814034 -7.8868179 -0.23520362 43
-41.783005 -7.9112225 -0.33360177 64
-41.858124 -7.8799505 -0.10080534 32
-41.771271 -7.9421272 -0.27964473 61
-41.731651 -7.9223175 -0.18662369 31
-41.739201 -7.9087276 0.079357982 255
-41.766453 -8.0193367 -0.3308388 23
-41.787403 -7.9938574 -0.38329649 59
-41.823212 -7.902945 -0.17672873 47
-41.803658 -7.9134569 0.04272664 51
-41.780064 -8.0046692 0.26965392 64
-41.756706 -8.0088882 -0.33229905 36
-41.78035 -7.92589 0.30204254 49
-41.755066 -7.935905 0.19834369 255
-41.882576 -7.9298506 -0.39417464 64
-41.707199 -7.9374514 -0.076298587 57
-41.734699 -7.9314346 0.11048102 255
-41.831448 -7.8723164 -0.43268031 29
-41.722145 -7.9356818 0.17367244 255
-41.750111 -7.9044437 -0.0092202397 54
-41.774765 -7.9042931 0.16792023 255
-41.840569 -8.0014515 -0.39751804 48
-41.872986 -7.9163342 0.12527037 255
-41.814339 -7.985332 -0.24562848 63
-41.87392 -7.8987203 -0.081926517 51
-41.843346 -7.9135776 0.17769009 157.5
-41.731895 -7.9392028 -0.30616772 51
-41.749123 -7.9061861 -0.14741915 56
-41.779564 -7.9080696 0.09111768 155.5
-41.770447 -7.9210877 0.33146369 63
-41.769001 -7.9728823 -0.34920579 59
-41.794685 -7.9401016 -0.19994289 57
-41.822258 -7.939703 -0.049486279 59
-41.799557 -7.9423676 0.10659355 78
-41.795406 -7.9552603 0.2609998 66
-41.891399 -7.9184322 -0.4047218 23
-41.713455 -7.941103 0.33412445 64
-41.764221 -7.9602752 -0.25602227 53
-41.780876 -7.9148803 -0.056731641 64
-41.776329 -7.9220886 0.079632223 59
-41.750458 -7.9439883 0.21916407 50
-41.761238 -7.9323916 0.35227829 64
-41.726326 -7.9306459 -0.26271522 24.5
-41.716671 -7.9195042 0.056287229 181
-41.714725 -7.9255991 -0.3236379 47
-41.773071 -7.9015341 0.097644873 160.5
-41.742081 -8.0203161 0.41770977 32
-41.880444 -7.9175396 -0.39326727 22
-41.7966 -7.8847651 -0.25623041 41
-41.754032 -7.9842095 -0.36124146 51
-41.770126 -7.9173107 -0.066984467 62.5
-41.743126 -7.9488907 0.12156051 47
-41.732334 -7.9405127 0.24257898 56
-41.757046 -8.0092192 0.36869854 47
-41.895554 -7.9576092 -0.33597803 48
-41.903549 -7.9887943 -0.21682084 27
-41.825439 -7.9781981 -0.30237854 24
-41.812408 -7.9218907 -0.13188231 54
-41.836067 -7.9192781 0.091153137 179
-41.794006 -7.952395 0.2706089 64
-41.77383 -8.0379734 0.39535731 43
-41.748936 -7.9442787 -0.40686101 66
-41.747974 -7.9457512 -0.2968924 54
-41.745178 -7.9509039 0.13931972 255
-41.721321 -7.9603229 0.35963348 72
-41.8288 -7.8952103 -0.2417872 49.5
-41.755535 -8.0012789 -0.27699053 38
-41.82737 -7.9015236 -0.029383721 51
-41.818192 -7.8983984 0.12976533 255
-41.799286 -7.9104738 0.23788083 255
-41.823479 -7.9101791 0.33851546 63
-41.755928 -8.0008459 0.46000284 38
-41.885914 -8.0149584 -0.30248547 22
-41.876469 -8.0202198 0.31422639 37
-41.760784 -7.9302459 -0.25210357 57.5
-41.841129 -7.8759441 -0.068164229 39.5
-41.840721 -7.8789024 0.13011295 162
-41.838242 -7.8916979 0.32707942 163
-41.845768 -7.8967633 0.47302422 48
-41.783302 -8.0040379 0.48645389 40
-41.789673 -7.8891563 -0.25849986 69.5
-41.733715 -8.0014114 -0.20678651 39
-41.723465 -7.9811778 -0.29893231 39
-41.797012 -7.8959079 -0.070869327 53
-41.799042 -7.8985481 0.11610353 255
-41.796791 -7.9140291 0.25558889 74
-41.787849 -7.9174223 0.34953666 55
-41.795288 -7.912272 0.44086078 67
-41.736465 -8.0160179 0.44939449 34
-41.827415 -7.9163837 -0.38020062 68
-41.818546 -7.9151974 -0.28614438 75
-41.75362 -8.0011482 -0.36873966 39
-41.816151 -7.9257202 -0.14873755 73
-41.818653 -7.8969426 -0.01289916 188
-41.818687 -7.9055758 0.077248693 255
-41.81691 -7.9389696 0.21250978 68.5
-41.790649 -7.9923306 0.35221532 42.5
-41.766079 -7.9059954 -0.25625724 66.5
-41.761829 -8.0651703 -0.30673039 16
-41.788868 -7.9155865 -0.039418459 105.66666
-41.787849 -7.9182835 0.13661277 255
-41.791206 -7.9271526 0.22376841 64
-41.767632 -7.9713244 0.3741394 57
-41.822254 -7.9676847 -0.38661611 29
-41.778538 -7.9445181 -0.28812754 58
-41.786644 -7.9563127 -0.16072917 75.5
-41.787605 -7.955162 0.052228119 244
-41.78849 -7.9697723 0.26440614 73
-41.950249 -8.0329018 -0.3053574 19
-41.699844 -7.9247265 0.35167092 68
-41.786915 -7.8999214 0.41886348 77
-41.759621 -7.9222183 0.54538369 70
-41.712185 -7.9394617 -0.32783693 29
-41.800507 -7.8920093 -0.18316287 48
-41.727116 -7.9949627 -0.17576462 21.5
-41.808647 -7.8805122 0.05289441 255
-41.78949 -7.8919015 -0.022206839 78
-41.727333 -8.0041542 0.14081138 255
-41.792248 -7.8973083 0.21027732 199
-41.723389 -7.9777098 0.25845021 32
-41.79221 -7.9131584 0.36448681 69
-41.736427 -7.9607167 0.44903171 17
-41.734703 -7.9267163 0.42494783 71
-41.855701 -7.9067488 -0.28841728 72
-41.786018 -7.9954786 -0.31509721 19.5
-41.769493 -7.9510717 -0.19627362 34
-41.848701 -7.9094267 -0.067763858 141.33333
-41.784912 -7.9999218 -0.057159659 52.333332
-41.867165 -7.9053941 0.10773134 255
-41.787857 -8.033617 0.15874085 255
-41.85638 -7.9154701 0.21657223 53
-41.856304 -7.9180574 0.28712305 60
-41.801666 -7.9762387 0.31637001 48.25
-41.877754 -7.9116831 0.02827972 62.599998
-41.86245 -7.9918776 0.2972374 42
-41.863548 -7.9877558 0.50626504 15
-41.759243 -7.9238777 -0.27870876 85
-41.758141 -7.929141 -0.144297 86.5
-41.771343 -7.9274912 0.083924949 190.66667
-41.766693 -7.9205961 0.2151559 255
-41.740814 -7.9718609 0.28328639 78.333336
-41.761707 -7.946785 0.40890223 91
-41.744038 -7.9227772 -0.23426294 43
-41.733757 -7.9252338 -0.10132188 86
-41.741432 -7.9226122 0.089109004 255
-41.740177 -7.9358325 0.21531928 255
-41.743107 -7.9404793 0.4022615 73
-41.791473 -7.9068451 -0.22926462 77
-41.707352 -7.9291582 -0.24109709 71
-41.79369 -7.9069972 -0.070685633 64.75
-41.806351 -7.9061823 0.082458258 255
-41.752991 -7.9565744 0.16559434 139.39999
-41.749771 -7.9391575 0.33844253 95.333336
-41.748844 -7.9377632 0.45937327 57
-41.755669 -7.9225502 -0.38266325 19
-41.84343 -7.8900371 -0.27559102 54
-41.754589 -7.9140849 -0.2556411 45.666668
-41.846279 -7.8907275 -0.12237012 60.5
-41.849693 -7.8977385 -0.03327328 43
-41.753784 -7.9235668 -0.073132217 42.333332
-41.855007 -7.8945436 0.055430111 255
-41.795155 -7.9406433 0.13091245 104
-41.80439 -7.9206519 0.33037952 96.666664
-41.801628 -7.8962216 -0.24932343 18
-41.812176 -8.0499535 -0.35580426 1
-41.842758 -7.8811827 -0.10378689 39.25
-41.844032 -7.8815455 0.10563231 89
-41.802616 -7.9058294 0.34584227 94.333336
-41.813583 -7.9150801 0.48618957 105.5
-41.726006 -7.9622879 -0.40444094 7
-41.806313 -7.9374127 -0.29643905 20
-41.74284 -7.9542685 -0.24014241 16.25
-41.765995 -7.9465027 -0.041439831 76.85714
-41.775421 -7.9612012 0.16985655 143.875
-41.752892 -7.9560366 0.36960065 70.800003
-41.73299 -7.9778838 0.068874061 142.75
-41.73682 -8.0053196 0.25843149 48.333332
-41.743935 -7.9447403 -0.18546629 3
-41.826214 -7.9113903 -0.10992938 7.25
-41.742302 -7.9414983 -0.068169057 7.333333
-41.823215 -7.8950963 0.03643024 32
-41.766228 -7.9185638 0.13995016 110.71429
-41.790401 -7.9278851 0.30225858 23
-41.730442 -7.9697771 0.26290187 3
-41.748859 -7.9635425 0.38128012 46.75
-41.749996 -7.9676452 0.47439873 69
-41.826 -8.0481358 0.35016543 27.5
-41.737747 -7.9484568 0.38468295 37.75
-41.742477 -7.9421721 0.49454933 60
-41.831009 -8.0029364 0.46723965 36
-41.784958 -7.9671659 0.11405313 0
-41.73864 -7.9865322 0.24731433 1.5
-41.837513 -8.0248346 0.37505519 5
-41.808426 -7.9845495 0.47051883 4
-41.889534 -7.9337368 -0.34787375 0
-41.894333 -7.9373488 0.13172299 255
-41.891479 -7.9572654 0.3679592 10
-41.841743 -7.9505324 -0.42068291 7
-41.8843 -7.9458885 -0.41204852 15
-41.894783 -7.9454708 0.02385479 255
-41.815125 -8.0248203 -0.18450087 41
-41.809235 -7.9265194 -0.01091552 1
-41.897476 -7.9572048 -0.0614537 16
-41.789375 -8.0185013 -0.056859668 4
-41.750069 -7.9879904 -0.01308227 49
-41.733734 -8.0252895 0.35734773 75
-41.819229 -8.0575991 -0.39228404 68
-41.836906 -8.0666218 -0.22296864 32
-41.769283 -8.0598068 -0.24774432 41
-41.786179 -8.060915 -0.21983027 25
-41.726315 -7.9495049 -0.14428216 22
-41.865143 -7.9593039 -0.21951079 42
-41.814392 -8.0414696 -0.31120318 56
-41.731621 -8.0191031 -0.25655276 59
-41.88562 -7.9488802 -0.15582037 32
-41.796753 -8.0471687 -0.24106455 60
-41.814362 -7.9623594 -0.039704561 57
-41.840736 -7.9612999 0.16482043 255
-41.759098 -7.9388857 -0.0379957 35
-41.749226 -7.9507446 0.16147745 255
-41.736145 -7.9547057 -0.15421039 43
-41.747456 -7.9618192 0.23430198 255
-41.73621 -7.9444509 -0.19079691 33
-41.774933 -7.9423404 -0.00698727 32
-41.758293 -8.0385656 -0.31137371 58
-41.775269 -7.961812 -0.04207385 56
-41.847477 -8.0376844 -0.3538934 50
-41.855816 -7.9464579 -0.18236125 42
-41.862671 -7.9610729 -0.00322533 58
-41.843063 -7.9590645 0.17683411 56
-41.720528 -7.9312148 -0.082913399 37
-41.710541 -7.9457288 0.16830194 255
-41.748512 -7.9522657 -0.44910663 38
-41.812817 -8.0375519 -0.29489207 33
-41.851833 -7.9419985 -0.14367092 64
-41.844574 -7.9504404 0.01906669 64
-41.800823 -7.9674854 0.18492627 65
-41.78067 -7.9809847 -0.29844141 51
-41.856678 -7.9117804 -0.15652043 44
-41.822201 -7.9351873 0.00351143 59
-41.838768 -7.9317875 0.23412263 157.5
-41.801483 -8.0201263 0.4770993 51
-41.780914 -7.9504361 -0.18305349 53
-41.829582 -7.9270163 0.023729621 56.5
-41.85376 -7.9177094 0.23490959 255
-41.825146 -7.9423146 0.38201362 68
-41.799393 -8.0292101 0.5310002 45
-41.807636 -7.9572229 -0.19828486 55
-41.833496 -7.949748 0.0033190299 62
-41.841141 -7.9442768 0.20746949 159
-41.783409 -8.0114164 0.42253268 50
-41.71489 -7.9350605 0.00445682 63.5
-41.72681 -7.9420757 -0.19794822 60.5
-41.750393 -7.9492664 0.050745249 67.5
-41.76152 -7.9426842 0.23794591 70
-41.793503 -7.9686017 -0.34505904 44
-41.855309 -7.934577 -0.17481017 65.5
-41.814259 -7.962018 0.073653698 67
-41.81752 -7.9514775 0.25275213 68
-41.813133 -8.0386143 0.37887836 42
-41.74094 -7.9750333 -0.31845903 44
-41.768898 -7.9642944 -0.1469869 54
-41.811935 -7.9435563 0.07963258 161
-41.804436 -7.9613705 0.31693453 68
-41.761692 -8.000288 0.50150794 39
-41.798851 -7.9129858 -0.2732901 66
-41.761177 -8.0388279 -0.26958185 35
-41.729973 -7.9435949 -0.14802104 62
-41.769409 -7.9403877 0.01265055 67
-41.795723 -7.9328957 0.23113483 165
-41.768108 -7.9517155 0.40170774 72
-41.750072 -8.0248709 0.51822287 33
-41.778732 -7.944171 -0.30211049 28
-41.766735 -7.9503932 -0.085235663 67
-41.767876 -7.9397669 0.074236512 255
-41.760746 -7.9556093 0.34116018 62
-41.80566 -7.9026957 -0.29630631 68
-41.875683 -7.8884587 -0.15619969 42.5
-41.81459 -7.9992456 -0.2014814 37
-41.855076 -7.8918314 0.049622651 97.5
-41.88155 -7.9041433 0.24657339 163
-41.881649 -7.9099722 0.39720449 65
-41.813332 -7.9927607 0.4066796 36
-41.837528 -7.9550047 -0.34371084 72
-41.902107 -7.9652839 -0.22612303 39.333332
-41.887897 -7.9465575 -0.0091412701 72
-41.857506 -8.0620775 0.43749449 27
-41.858112 -7.9577122 -0.25122386 50.75
-41.87571 -7.9393244 -0.03512156 57.5
-41.8223 -8.0117826 0.14504784 255
-41.88588 -7.9312191 0.35076743 78.5
-41.860107 -7.9840212 0.48322463 47
-41.880375 -7.934495 -0.26985013 53
-41.806705 -8.0147953 -0.26679325 17
-41.79451 -7.9850607 -0.18200171 21
-41.797462 -7.9865122 -0.34015679 20
-41.874275 -7.9405985 -0.074154504 74.5
-41.793674 -7.9675112 -0.063889921 69.5
-41.86393 -7.9434571 0.10017067 208.75
-41.815945 -8.0677099 0.15678048 174
-41.877014 -7.9517536 0.34554145 74.666664
-41.802967 -8.026824 0.39041424 15.5
-41.723015 -7.9581423 -0.45238972 79
-41.810989 -7.9383926 -0.32742691 75.333336
-41.745651 -8.0453739 -0.32749343 9
-41.730671 -7.9731145 -0.31419039 55
-41.812042 -7.9489446 -0.15295881 79
-41.759277 -7.9873857 -0.065012097 55.666668
-41.788109 -7.9735928 0.091428488 164.39999
-41.747967 -8.0616217 0.09454447 28
-41.778812 -7.984808 0.28419712 46.200001
-41.859447 -7.9225731 -0.26025307 83.5
-41.776905 -7.9475927 -0.27635497 68
-41.862495 -7.9281769 -0.089637943 85.666664
-41.775398 -7.9606104 -0.071293652 41.666668
-41.872868 -7.9327383 0.11022621 203.66667
-41.785789 -8.0035152 0.12577838 52.333332
-41.864586 -7.9416504 0.31104815 133.66667
-41.787251 -7.9849539 0.32638049 60
-41.860649 -7.9518957 0.44374052 89
-41.715694 -7.9542742 -0.30462492 91.800003
-41.724308 -7.956336 -0.12450385 94.833336
-41.729618 -7.9633007 0.064915538 182.66667
-41.736404 -7.9696016 0.26919147 138.85715
-41.74852 -7.956677 0.43611544 98
-41.855186 -7.9254618 -0.34401715 80
-41.770721 -7.9408665 -0.35843194 73.5
-41.853939 -7.9172344 -0.18291354 77
-41.780544 -7.9308424 -0.26199681 42
-41.773277 -7.9426346 -0.13685429 88.666664
-41.872948 -7.9324789 0.02764535 196.66667
-41.773811 -7.9567289 0.046450611 80.333336
-41.905785 -7.9850111 0.1376667 255
-41.852474 -7.935297 0.24400836 101
-41.77734 -7.9568644 0.22781619 106
-41.857143 -7.9316998 0.33308908 90
-41.785576 -7.9668255 0.37539893 99.5
-41.800831 -7.9176302 -0.20656079 48.5
-41.713741 -7.9415665 -0.22532588 69
-41.803062 -7.9286575 -0.12001288 40
-41.732227 -7.9627242 -0.039795101 27.25
-41.798798 -7.9290209 0.14219975 161.5
-41.713211 -7.9609365 0.15346771 75.5
-41.803967 -7.93577 0.30997825 85.5
-41.794899 -7.9456687 0.39449996 88
-41.721615 -7.9632607 0.35036144 87.333336
-41.757732 -7.9634094 0.47428107 78
-41.872578 -7.9182749 -0.1199134 1
-41.855816 -7.9532576 -0.0079282504 2.5
-41.865017 -7.951746 0.1944958 10.5
-41.8992 -7.9635324 0.39830527 8.75
-41.809681 -7.9553089 0.40378267 3
-41.777454 -7.9729033 0.1577698 1.5
-41.774998 -7.9794655 0.31756461 6.1428571
-41.845257 -8.0490217 0.50610065 2
-41.737919 -7.9783859 0.50599664 48
-41.726929 -7.967052 0.26662466 87.25
-41.735443 -8.0080223 0.45823729 32.25
-41.80645 -7.9797711 0.058826681 5.1999998
-41.808216 -7.9884558 0.21439767 8.3999996
-41.735386 -7.9577637 0.28887147 11
-41.838734 -8.002099 0.42368484 12.666667
-41.749783 -7.951756 0.40737554 28.5
-41.831093 -7.9392147 0.075241923 3
-41.843124 -7.9310179 0.23393363 24.333334
-41.885372 -7.9555912 0.4117873 36.75
-41.853065 -7.9510183 0.21455359 0
-41.894569 -8.0266666 0.16640359 0.5
-41.88065 -7.9686136 0.32389402 8.75
-41.906853 -8.003377 0.46152264 61
-41.846272 -7.9605789 0.50156701 1.5
-41.776363 -8.0902224 0.1546444 4
-41.729996 -7.9449682 -0.33507943 59
-41.895035 -7.9323902 -0.0043892302 255
-41.757366 -7.9788051 -0.14563318 76
-41.710819 -7.9534621 -0.0152204 255
-41.734947 -7.9168258 -0.090183653 50
-41.820885 -7.9027314 -0.25592086 63
-41.751869 -8.0059977 0.15748438 255
-41.886845 -7.946125 -0.36083835 56
-41.745567 -7.9627929 0.19922096 147
-41.818413 -7.9554534 -0.11068787 68
-41.875366 -7.9817863 -0.18913814 70
-41.726162 -7.9296803 -0.360728 51
-41.737885 -7.937541 -0.37213778 44.5
-41.720196 -7.9467449 0.2082808 63
-41.743927 -8.0071192 0.13335013 255
-41.829475 -7.9941182 -0.40586022 39.5
-41.829906 -7.9986553 0.15959331 255
-41.756863 -7.9771423 -0.0202691 98
-41.763668 -7.9831433 -0.19715396 54
-41.855732 -7.875349 -0.30645055 26.333334
-41.829727 -7.9256902 0.2381981 62
-41.729111 -7.9922552 -0.40348947 72
-41.738358 -7.9772801 0.11838472 255
-41.733448 -7.9581447 -0.27108508 73
-41.727169 -7.9746189 -0.35618076 76
-41.739506 -7.9998407 0.14983931 255
-41.738831 -7.9625845 -0.31618083 42.5
-41.728149 -7.9845252 0.18502086 255
-41.726376 -7.9945717 -0.35831183 79
-41.733269 -7.9394503 -0.086154431 71
-41.740868 -7.9330359 0.40536669 53
-41.802917 -7.8833742 -0.37486264 15
-41.740486 -8.0041695 0.1108487 255
-41.852844 -7.9069166 -0.047894601 68
-41.87352 -7.9097509 0.39679325 51.5
-41.788235 -7.9097681 -0.03416973 48
-41.760269 -7.9202962 0.072591931 99
-41.785938 -8.0752707 0.04501399 164
-41.84742 -7.8891063 -0.31641328 55
-41.851593 -7.9232707 0.11193359 230
-41.724178 -7.9732924 0.1016933 254
-41.712669 -7.9445639 -0.25516111 59.5
-41.772804 -7.9775143 -0.11292082 73
-41.765587 -7.9573507 0.29702252 85
-41.862473 -7.9105244 -0.1198501 61
-41.862804 -7.9628553 0.2869156 73
-41.787514 -7.9281406 -0.065080583 46
-41.760838 -7.9949455 -0.063937843 68
-41.757168 -7.9884377 0.33313829 77
-41.790039 -7.9271526 -0.33797437 52
-41.775414 -7.9601555 0.046189371 184
-41.731579 -7.9688096 -0.36762935 52
-41.725334 -7.9648743 0.01014549 106
-41.739616 -7.9667482 0.38829559 58.5
-41.713421 -7.9265528 -0.19072258 48.5
-41.743332 -7.9300117 0.17344332 190
-41.753784 -7.942152 -0.19422287 45
-41.731609 -7.989356 0.1742819 179
-41.755093 -7.9355345 -0.30462664 50
-41.737679 -7.9731116 0.046001971 164.5
-41.723785 -7.9475961 0.38999182 66
-41.841919 -7.9744873 -0.34424525 46.5
-41.852463 -7.9289246 -0.01251978 55.5
-41.852318 -7.9419365 0.31633586 60.5
-41.880089 -7.8921976 -0.32238194 36.75
-41.768112 -8.0712938 -0.32340726 51
-41.755432 -7.9372377 0.16462615 57
-41.748436 -7.9956913 0.16336468 255
-41.86837 -7.8809066 -0.3756001 44.5
-41.840324 -7.9221463 -0.058408681 60
-41.829403 -7.9390612 0.25802499 74
-41.825897 -7.8807235 -0.33839887 42
-41.793427 -7.9880776 -0.33840388 36
-41.783249 -7.924386 0.13174242 60.5
-41.710426 -7.9467754 0.34172899 60
-41.801643 -8.0981808 -0.20430356 60.799999
-41.79882 -8.0292177 0.088380992 179
-41.753063 -7.9556446 0.378506 59.5
-41.731602 -7.9495163 -0.081118047 56
-41.724277 -7.9483156 0.205787 63.5
-41.713539 -7.9297819 -0.29591352 64
-41.731033 -7.9662089 -0.01178879 51
-41.720692 -7.9654102 0.27173954 69
-41.796692 -7.9415083 -0.2601918 41
-41.800014 -7.9344816 0.018596889 56
-41.787556 -7.9481716 0.29787934 70.5
-41.905464 -7.9659858 0.44215161 61
-41.823441 -8.0212936 -0.21437943 54.666668
-41.824207 -7.9607444 0.056629539 192
-41.851238 -8.0930977 0.33040607 66.75
-41.78344 -7.9110651 -0.40960246 30.25
-41.726326 -7.9304242 0.38087648 32
-41.807236 -7.9166307 -0.15543658 45.5
-41.806671 -7.9810781 -0.23266017 50.5
-41.812809 -7.9279337 0.14393568 49.25
-41.818039 -7.9255466 -0.33615947 60.5
-41.805698 -7.942852 0.024938289 121.33334
-41.797268 -7.9386406 0.38188142 65
-41.786522 -7.9035568 -0.16499519 58.416664
-41.794292 -7.9313459 0.30638826 88.666664
-41.766186 -8.105217 -0.02327871 94.333336
-41.767464 -7.9347587 -0.33440721 60
-41.765945 -7.949244 -0.0023500901 125.375
-41.763123 -7.939445 0.32857275 71.5
-41.818775 -7.8860912 -0.28531444 46.166664
-41.772655 -7.9508781 0.15668666 59.25
-41.788067 -7.9412079 0.48131335 39
-41.771507 -7.9378014 -0.23031789 58.416664
-41.751118 -7.9921627 0.09323889 161.5
-41.745602 -7.9502058 0.19860965 59.25
-41.723415 -7.9411149 -0.39664656 52.333332
-41.718292 -7.954608 -0.09541595 56.583336
-41.726231 -7.9692774 0.26367366 122.66666
-41.840858 -7.9682961 -0.13262647 56.566666
-41.832424 -7.9634137 0.22113335 92.333328
-41.758087 -7.970408 -0.41142541 34
-41.82066 -7.9198279 -0.24791938 56.5
-41.806377 -7.9226489 -0.16022408 61.166664
-41.815212 -8.0058689 -0.072665043 45
-41.817493 -7.929163 0.26632482 82.444443
-41.810051 -7.9973269 0.27008766 121
-41.702332 -7.9278393 0.18449265 156.5
-41.814484 -7.8856115 -0.31581473 35
-41.754986 -7.9400969 -0.22834986 51.125
-41.759476 -7.9497442 0.17328781 96.383331
-41.775402 -7.9463377 0.49246466 42
-41.796791 -8.0006809 -0.043895539 103.80555
-41.796547 -7.9843025 0.33875608 55
-41.755959 -7.9509506 -0.31110024 50.099998
-41.795906 -7.925849 -0.19437331 50.666668
-41.805893 -7.9345293 0.2122218 105.45
-41.757507 -7.9723363 0.35568845 53
-41.776634 -7.9517717 0.48755103 52.666668
-41.758904 -7.9717731 -0.020946501 77.071976
-41.764103 -7.9221201 0.34601688 62.708336
-41.718307 -7.9397402 0.35222989 53.75
-41.770164 -7.9196191 -0.18754888 56.6875
-41.796715 -8.084733 -0.11684746 43
-41.782265 -7.9206562 0.23286569 100.83334
-41.792099 -8.0627165 0.24839818 91.916664
-41.85508 -7.9613209 -0.2670514 44.67424
-41.788582 -7.9453659 -0.23970234 48.622616
-41.784954 -7.9637604 0.21610624 75.400002
-41.781879 -7.9053993 -0.12582618 67.25
-41.769745 -8.0047741 -0.12005317 46.544643
-41.794136 -8.0214252 0.29871225 72.913887
-41.883644 -7.9224882 -0.3563078 41.832142
-41.882057 -7.9414816 0.053010639 98.769051
-41.889969 -7.9257755 0.303049 43.833332
-41.810005 -7.9562454 -0.16367185 52.023808
-41.779846 -7.934412 0.23927188 96.520248
-41.75428 -7.9248509 0.38922209 60
-41.807114 -7.9088469 0.47851223 62.666668
-41.762962 -7.9388838 0.48562551 53.666668
-41.746067 -7.9078007 -0.15669894 72.566666
-41.763672 -8.0460081 -0.16567874 51.458332
-41.774731 -7.9119081 0.16576761 188.66667
-41.794033 -8.0907478 0.20862514 75.505051
-41.740944 -7.9426117 0.44708884 60
-41.787579 -7.9163957 -0.37201077 71.5
-41.760262 -7.9585366 -0.276465 61.206665
-41.770668 -7.9832406 0.13009292 115.79166
-41.756462 -7.9696841 0.35498101 61.166668
-41.749214 -7.9245481 -0.11979169 107.55
-41.766518 -8.0825033 -0.12566316 65.898331
-41.765266 -8.0432158 0.27451432 79.658333
-41.882389 -7.926774 -0.44626486 47.5
-41.738945 -7.9813452 -0.065181077 115.04999
-41.747166 -7.9820223 0.22956678 79.111115
-41.761742 -8.0982914 -0.17417699 31.783331
-41.784389 -8.1088009 0.21088696 81.365936
-41.761784 -7.9041529 0.42291629 83
-41.748409 -7.9655061 0.50752509 53.432323
-41.747612 -7.9158607 0.1395849 147.43668
-41.774342 -8.0923052 0.13173664 97.152382
-41.769001 -7.9170413 0.36761087 66.5
-41.743858 -7.9440737 0.40953714 58
-41.721756 -7.9890327 0.40876105 73.095955
-41.819832 -7.9190006 -0.17063218 110.73611
-41.782173 -7.9293098 -0.161704 87.541672
-41.78273 -7.9606295 -0.091525853 83.199997
-41.847244 -7.9148226 0.11168814 255
-41.831623 -7.9208012 0.1503484 199.33333
-41.803276 -7.9546824 0.22631413 113.71666
-41.872215 -7.8941011 -0.054887589 81.828575
-41.872643 -8.012949 0.15249813 101
-41.741829 -7.9577017 -0.21233881 77.930557
-41.726357 -7.9549723 0.18893802 158.4904
-41.739456 -7.9535065 0.41249079 90.666664
-41.83445 -7.9105239 -0.24438643 59.563904
-41.731812 -7.9255638 -0.15210783 67.439629
-41.750969 -7.9325008 0.24699026 166.35713
-41.747662 -7.9489317 0.45972615 84
-41.819256 -7.8758745 -0.45478344 17.131266
-41.79847 -7.9039006 -0.17380184 66.110115
-41.80703 -7.9166851 0.21231383 158.24942
-41.901073 -7.9731016 -0.29724663 9.887989
-41.843113 -7.8803034 -0.01369917 83.384636
-41.849995 -7.8918581 0.36428228 148.89445
-41.823952 -7.9022417 0.42714226 106.95833
-41.746513 -7.9538326 -0.40744835 8.208333
-41.837891 -8.0336294 -0.17035359 137
-41.763184 -7.9386444 -0.13966906 71.331345
-41.876747 -8.0763016 0.10916984 255
-41.768387 -7.9491663 0.25581077 160.66628
-41.776939 -7.9371452 -0.19145995 1.8
-41.786049 -7.9293084 0.0084309597 66.184303
-41.823936 -8.0089216 0.32683498 9.7690477
-41.736954 -7.9866786 0.25886634 1
-41.764111 -7.9657249 0.39102423 43.041664
-41.827076 -8.0923643 0.34202576 25.6
-41.776737 -7.9389 0.37832785 35.692307
-41.795948 -7.9411554 0.48314229 59
-41.816608 -7.9778709 0.11250043 1.5
-41.827126 -7.986156 0.29162371 14.266666
-41.852577 -7.9731736 0.4238354 5.166667
-41.873425 -7.9246898 -0.22924799 1.25
-41.862823 -8.0264492 0.24359363 7.333333
-41.755573 -8.0473309 -0.43113136 9.333333
-41.832794 -7.9412165 -0.17814457 14.5
-41.785847 -8.0118713 -0.18388021 15
-41.824215 -7.9319334 0.062842853 255
-41.816299 -7.9971366 0.18030155 11.916666
-41.879948 -8.025589 -0.29191136 42
-41.91642 -7.9839573 0.17615414 255
-41.824638 -8.0980339 -0.43113011 21.666666
-41.854977 -7.9943104 0.44731027 20
-41.847168 -7.941597 -0.11468512 18
-41.811333 -8.0100155 0.3143782 51
-41.788284 -8.1000748 -0.2486074 44
-41.833328 -8.0164452 0.20468235 255
-41.868607 -7.998661 -0.36911684 40
-41.845886 -8.0687885 0.070139833 255
-41.891949 -7.946701 0.085653722 255
-41.75721 -8.0471153 0.0023540901 44
-41.860542 -8.0368462 -0.30163169 36
-41.857727 -8.0822201 0.14874315 255
-41.900703 -8.0246162 -0.3378216 36.5
-41.896412 -8.0109634 0.1198808 255
-41.865547 -7.9985657 -0.3096205 25
-41.884659 -8.0638447 0.14674795 255
-41.892757 -7.9543457 -0.13795775 30.5
-41.908058 -8.0058517 0.32132751 55
-41.800873 -8.0397663 -0.020516399 45
-41.809029 -8.039156 0.44603562 28
-41.820004 -8.0776539 -0.20110029 22
-41.790596 -8.0736866 0.26069862 63
-41.888359 -8.0354347 0.40184844 56
-41.851547 -8.0266495 -0.40780902 36
-41.821838 -8.0232258 0.071726561 195
-41.914787 -8.0454884 -0.10915434 39
-41.957413 -8.0579548 0.37871349 40
-41.845066 -7.989212 -0.33351475 27
-41.78344 -8.0857506 0.42800981 5.5
-41.775776 -8.0045147 -0.052783009 14
-41.846054 -8.0352345 0.55185801 13
-41.853798 -8.069912 0.420654 61
-41.888168 -8.0740433 0.11778963 255
-41.935703 -8.0306778 -0.0091522904 255
-41.775841 -8.0771942 -0.45763618 26
-41.764137 -8.1232109 0.31734174 73
-41.880043 -8.0512314 -0.017195109 255
-41.837757 -8.0615425 -0.02923977 44
-41.808559 -8.0772934 -0.31003112 69
-41.91357 -8.030323 -0.43636453 55
-41.942566 -8.0205193 -0.24463069 72
-41.892555 -8.0530243 0.5673207 31
-41.921982 -8.0313683 -0.27173555 56
-41.900711 -8.0199165 -0.39463103 62
-41.814194 -8.0529366 -0.38225877 51
-41.786919 -8.1073303 -0.53202111 29
-41.843933 -8.0760155 0.32411301 39
-41.879944 -8.0671463 -0.02548945 69
-41.921352 -8.0548058 -0.50930661 55
-41.9048 -8.0376167 0.33186454 11
-41.817616 -8.0763435 -0.01133382 67
-41.928318 -8.0553284 0.1629774 255
-41.940292 -8.024353 -0.37873483 66
-41.900032 -8.0693932 0.3150903 54
-41.815224 -8.1020622 0.064557612 255
-41.858021 -8.0388336 0.47562307 11
-41.857407 -8.079567 0.30675799 255
-41.782696 -8.0232887 -0.10667872 29
-41.802483 -8.0839119 0.31934738 22
-41.900112 -8.0638123 0.35491228 35.5
-41.945641 -8.0395966 0.49250227 58
-41.846794 -8.0897179 -0.2463364 49
-41.865318 -8.0485802 0.44634366 24
-41.946625 -8.0401077 0.30521607 64
-41.910412 -8.0152283 -0.40328431 71
-41.826199 -8.0177689 0.44882131 3
-41.881321 -8.023365 -0.34649861 75
-41.791531 -8.0707245 0.40217799 14
-41.810211 -8.1095085 -0.44146812 29
-41.867073 -8.0643768 0.45012033 18
-41.909847 -8.0606346 -0.25538361 48
-41.854736 -8.0794182 -0.2155441 57
-41.800232 -8.0759888 -0.095430084 75
-41.828339 -8.0846481 0.29421359 61
-41.830311 -8.0718918 0.019732179 255
-41.827927 -8.0447388 -0.15112686 64
-41.946274 -8.0644417 0.18578821 255
-41.91753 -8.0095253 -0.38710093 65
-41.83709 -8.0334663 0.46058953 2
-41.847004 -8.0476723 0.0482319 79
-41.869522 -8.0844498 0.02313083 255
-41.846069 -8.0855293 0.086636297 255
-41.927784 -8.0429649 -0.12633818 67
-41.87796 -8.0735245 -0.2120592 43
-41.797096 -8.1059799 0.21867037 255
-41.884083 -8.0696144 -0.16539651 30
-41.76123 -8.1017609 -0.12055206 69
-41.932854 -8.0003662 -0.35770464 42
-41.801632 -8.0850067 0.14366043 48
-41.928215 -8.0533943 0.33248073 50
-41.935555 -8.0645943 0.19735545 255
-41.861202 -8.0460091 0.40806693 20
-41.833538 -8.049366 -0.0049844999 67
-41.746677 -8.0230331 0.2588532 17
-41.864979 -8.0677185 0.21270257 56
-41.764404 -8.0630264 0.13109648 58
-41.807892 -8.0208817 -0.327932 19
-41.888969 -8.0761566 0.54347485 2
-41.774971 -8.0648193 -0.44008851 2
-41.853615 -8.0406075 -0.50322509 17
-41.926224 -8.0596771 0.42270184 6
-41.761444 -8.0603867 -0.35871005 45
-41.794754 -8.0526428 0.49725026 5
-41.769287 -8.1048737 -0.24398047 25
-41.798737 -8.0916328 0.61629975 16
-41.778984 -8.0781326 0.11219513 27
-41.757751 -8.004406 -0.54907882 6
-41.816933 -8.0441437 0.3427006 4
-41.794277 -8.0816498 0.23879445 46
-41.783127 -8.0780907 0.34211445 54
-41.809731 -8.0923615 0.27348602 52
-41.765678 -8.0299683 -0.39766777 45
-41.792912 -8.0002632 0.14486027 3
-41.870979 -7.9781647 -0.28711611 21
-41.922813 -8.0163727 -0.52661741 3
-41.726601 -7.9427567 -0.17869127 9
-41.837673 -8.0802727 0.28645164 12
-41.853542 -8.0593452 -0.24041152 14.5
-41.806908 -8.027401 -0.23970175 20
-41.796677 -8.0591812 0.087904163 62
-41.881172 -8.0814285 -0.39555764 12
-41.790562 -8.0932388 -0.41725123 7
-41.785294 -8.0611954 0.45536435 10.5
-41.790382 -8.0448799 -0.19236177 13.5
-41.787247 -8.0749359 0.31214702 46
-41.760628 -8.0636101 -0.01038635 108
-41.779682 -8.0899391 0.091532893 244
-41.7346 -8.013401 -0.4134326 1
-41.767136 -8.0738449 0.166287 237
-41.753864 -8.0829735 0.17818809 255
-41.820244 -8.0480118 0.01644695 8
-41.803757 -8.0475426 0.4942497 6
-41.821976 -8.0768318 0.27594006 1
-41.825687 -8.0050278 -0.094368458 1
-41.856491 -8.0176163 -0.20290434 1
-41.889206 -8.0789871 -0.24995792 4
-41.856071 -8.0623055 -0.5909878 2.5
-41.829422 -8.0720482 0.28208411 5
-41.744736 -7.979393 -0.42790616 15
-41.78537 -8.0661697 -0.31641567 3
-41.839348 -8.0684052 -0.15099084 17
-41.81311 -8.0973892 -0.16647422 18
-41.74984 -8.07658 0.041113731 24
-41.779011 -8.057579 -0.32906818 1
-41.828751 -8.064991 -0.36997724 8
-41.807468 -8.0281181 0.48652482 2
-41.767647 -8.0207863 -0.36164033 1
-41.749115 -8.0525322 0.22706044 39
-41.821491 -8.0718231 -0.11439037 24
-41.802673 -8.0843887 -0.53621447 9
-41.778873 -8.0778809 0.02011681 60
-41.821922 -8.0939255 -0.19136965 9
-41.825562 -8.0684967 -0.49403048 15
-41.80822 -8.0606804 0.36587834 5
-41.781754 -8.0602455 -0.13582206 10
-41.755722 -8.0018425 0.01320994 4
-41.913971 -8.0751724 -0.31879508 14
-41.781059 -8.0104256 -0.35231292 6
-41.856823 -8.0948677 -0.14850783 9.5
-41.753723 -7.9199562 -0.0042808098 3
-41.746471 -7.9999084 -0.22310734 11
-41.828812 -8.1017799 0.36285496 43
-41.799454 -8.0608521 -0.23063433 40
-41.777523 -8.0590019 -0.25907564 2
-41.780468 -8.113018 -0.23724711 255
-41.814941 -8.0851669 0.38596612 84
-41.779659 -8.1005287 -0.030080499 255
-41.731491 -8.0000515 -0.55346674 24
-41.737419 -8.0249939 0.13025691 255
-41.756855 -8.0952282 -0.050232291 255
-41.754936 -8.0871477 -0.40037683 44
-41.712383 -7.9400592 -0.58660823 59
-41.780472 -8.0908575 0.021973619 66
-41.821926 -8.0103836 0.085851423 255
-41.840889 -8.011961 0.077167451 34
-41.795086 -8.0741091 0.052411299 255
-41.781368 -8.050518 0.47022784 25
-41.763763 -8.0385017 0.17949824 38
-41.75753 -8.0767593 0.33202213 76
-41.779984 -8.0057354 0.060390711 255
-41.826096 -7.9913435 0.10432708 37
-41.804226 -8.0183048 -0.10608244 63
-41.794514 -7.9501247 -0.44249472 24
-41.801228 -7.9514093 -0.41043198 5
-41.769032 -8.0790262 -0.38028252 15
-41.791458 -8.0416813 0.38903606 68
-41.787701 -7.989233 0.32461047 2
-41.895393 -7.999959 0.35412937 23.5
-41.751415 -7.9710484 -0.1189973 6
-41.863949 -8.0427303 0.4416917 53.5
-41.767872 -8.0450563 0.03265582 44
-41.811607 -8.0418978 0.19370592 4
-41.921539 -8.0708914 0.11554049 25
-41.761078 -8.0380087 0.59278625 11
-41.821777 -8.0619307 0.62541008 15
-41.82766 -8.0479488 -0.12588358 69
-41.831783 -8.0453596 0.37018633 49
-41.773411 -8.0138712 -0.12318575 66
-41.799397 -8.0375538 0.3470844 52
-41.781155 -8.0723743 0.10406807 65
-41.775803 -8.0503054 0.56090188 55
-41.765831 -8.029129 -0.02529392 50
-41.755188 -8.0828743 0.41109124 60
-41.81805 -8.0541 -0.22005355 44.333332
-41.789284 -8.0570116 0.19472659 170.5
-41.814178 -8.0045328 -0.30005443 50
-41.791084 -8.0790882 0.099775672 255
-41.763321 -7.9908543 -0.38264322 52
-41.745438 -8.0543613 -0.0087175397 64
-41.759369 -8.1013956 0.3616221 62
-41.817612 -7.9972754 -0.21719921 54.5
-41.810379 -8.0521841 0.313887 66
-41.850548 -7.9749575 -0.2286132 54
-41.837967 -8.0092602 0.12201709 68.5
-41.814171 -8.0071754 0.47379988 80
-41.846004 -8.0350943 -0.077848263 61
-41.861359 -8.0394983 0.25580114 154.5
-41.771797 -7.9290271 -0.31204486 28.5
-41.764381 -7.9945292 0.020291571 48
-41.762753 -8.0020266 0.34713578 62.5
-41.775276 -7.9650669 -0.10862088 48.5
-41.789696 -8.0794735 -0.10029984 69.25
-41.789894 -7.989439 -0.082669258 56
-41.7925 -8.0053873 0.33699775 59
-41.792839 -7.9547434 0.0050865398 149
-41.775166 -8.0937729 0.0060027801 136.33334
-41.71653 -7.9659057 -0.21204227 49.25
-41.819153 -8.0323582 -0.21202445 50.333332
-41.851215 -8.081522 -0.088482141 36
-41.801514 -8.0036306 0.033662319 59
-41.83474 -8.0163431 0.28119302 49.25
-41.807785 -7.9701257 -0.31463951 60
-41.804657 -8.0158863 -0.072076976 46.333332
-41.810593 -8.0048771 0.28767592 116
-41.756393 -7.9876938 -0.14505273 49.166668
-41.744938 -8.0009346 0.3092081 92.833328
-41.773335 -8.0092106 -0.25572681 36.75
-41.839016 -8.0254936 0.18304038 94.75
-41.850292 -8.0202017 0.51638556 48.666668
-41.80883 -7.9733644 -0.2437191 61.333332
-41.787159 -8.0116119 0.067172997 96.416664
-41.789566 -8.0017662 0.37426424 58
-41.739376 -7.9611835 -0.13370013 62.166664
-41.72023 -7.9720583 0.26466978 57.25
-41.768318 -7.9487844 -0.35135466 37
-41.809097 -7.9875526 -0.38743585 34.57143
-41.767773 -7.9986515 0.053820729 100.66666
-41.74564 -8.0021038 0.24090898 59
-41.913723 -8.0491495 -0.27289796 42.741074
-41.874008 -8.0027227 -0.00127602 44
-41.842228 -7.998045 0.18008053 106.83334
-41.839497 -8.020627 -0.37987983 48.055557
-41.869202 -7.988493 -0.062216159 157.125
-41.809303 -8.0275936 0.02774835 115.66666
-41.814964 -8.0022011 0.26640117 85.208328
-41.881294 -7.9141989 -0.31660914 26
-41.830002 -7.914896 -0.30835402 59
-41.805504 -7.9707689 -0.069624841 52.974998
-41.858414 -7.9059715 0.15253282 255
-41.806896 -7.9634123 0.31722736 56.888885
-41.865303 -7.9149175 -0.19723296 60
-41.779518 -7.9431496 -0.2542274 34.022728
-41.79797 -7.9607873 0.10043389 73.5
-41.81641 -7.9658384 0.45480329 54.291664
-41.841671 -8.0512629 -0.13193661 56.708332
-41.830803 -8.027091 0.28122056 86.933327
-41.784145 -7.9824028 0.42057955 64
-41.728325 -7.9421043 0.39767867 68
-41.778893 -7.9207153 -0.27122855 60
-41.746567 -7.9411402 -0.075128503 94.666664
-41.769657 -7.9460249 0.30030328 48.5
-41.786427 -7.9205418 -0.40402162 31.692856
-41.823181 -7.985991 -0.047469739 85.550003
-41.795364 -7.9788008 0.13704014 40
-41.860954 -7.9497471 0.3076421 66
-41.809864 -7.9838328 0.31556553 54.041664
-41.776665 -7.9559288 -0.32643461 58
-41.780663 -7.9612064 -0.031757832 107.90417
-41.756668 -7.9784031 0.090709686 61.75
-41.759773 -8.0504713 0.15280437 189
-41.817062 -7.9424973 0.25497773 255
-41.763832 -7.9882355 0.3832677 50.055557
-41.761608 -8.052845 0.32964563 40.75
-41.744041 -7.9092693 -0.26163393 33.655556
-41.768536 -7.9509468 0.12411934 105.3
-41.805084 -7.9433784 0.45282757 68.75
-41.740486 -7.9743261 0.46121812 53
-41.750072 -8.0404034 0.40728253 37
-41.834888 -7.9242754 -0.36819381 52.636364
-41.797237 -8.0746422 -0.36499041 39.375
-41.741386 -7.9544125 -0.027683681 161.625
-41.750553 -7.9628396 0.23658577 74
-41.836338 -7.8836432 -0.25034493 50.237503
-41.825424 -7.9330959 0.15377361 98.52916
-41.831631 -7.9358912 0.40335542 39
-41.899769 -8.0280056 -0.2617287 50.760605
-41.899311 -8.0462914 0.13518149 95.220009
-41.841656 -7.9726782 0.29028344 64
-41.914539 -8.0695438 0.38037929 60.5
-41.851078 -8.0023518 0.38684028 44.700001
-41.829327 -7.9882526 -0.29228622 46.861115
-41.879829 -8.0688286 0.045920249 105.80318
-41.826817 -7.9853463 0.1878702 159.33334
-41.838905 -7.9653063 0.40015358 55.930553
-41.924713 -7.9911289 -0.35616642 46.572918
-41.831028 -7.9508553 -0.18489772 73.639999
-41.83445 -7.9634957 0.23580658 136.95158
-41.742092 -8.0216351 -0.46780729 30.20167
-41.765808 -7.9645238 -0.21539772 78.437309
-41.766075 -7.9756851 0.19750106 133.66866
-41.787846 -8.0189695 -0.32844883 53.046425
-41.85173 -7.9291692 -0.036380291 134.5
-41.819763 -7.9764495 0.017278969 137.78175
-41.784882 -7.9667835 0.19492832 170
-41.842903 -7.9618063 0.31514522 84.5
-41.811165 -7.9607801 0.35471481 82.108337
-41.726486 -7.9592648 -0.029648419 145.28471
-41.725983 -7.9723082 0.315292 128.73833
-41.856056 -7.9077587 -0.30866873 58.797916
-41.768917 -7.9582767 -0.22606206 62.977779
-41.866596 -7.9391418 0.058928128 212.125
-41.813499 -7.943718 0.13039553 174.06349
-41.826378 -7.9478502 0.3682158 86.130951
-41.741711 -7.943285 -0.40890956 2.3938129
-41.792984 -7.9212523 -0.21310586 62.299999
-41.749683 -7.969305 -0.18142921 60.721088
-41.801884 -7.9312582 0.1412856 208
-41.769718 -7.9910688 0.22380918 135.88214
-41.793617 -7.9951906 0.47420916 62.305199
-41.926575 -8.0575838 -0.39627165 12.320122
-41.88419 -7.9387636 -0.12856066 1
-41.871586 -7.9313526 0.11053729 80.857796
-41.891159 -7.9567652 0.41537863 4.0138888
-41.824135 -7.9690981 0.45546004 3.333333
-41.775543 -7.9639149 0.27537197 31.641203
-41.798832 -7.9712839 0.49691778 43.431816
-41.726929 -7.9836826 0.16162866 68.924385
-41.722557 -7.9873753 0.44792148 32.896297
-41.822491 -7.9865341 0.069164872 35.516666
-41.813423 -7.9632635 0.31366724 50.061943
-41.742374 -7.9636755 0.31746078 25
-41.879642 -7.9826117 0.20836133 5
-41.890694 -7.9761529 0.40226394 31.060001
-41.854279 -7.9651966 0.53236341 6.5
-41.809669 -8.0643387 -0.01548892 28
-41.825443 -8.057972 -0.093359947 32
-41.845249 -8.0494652 0.10696077 231
-41.799728 -8.0522995 -0.018591819 25
-41.90646 -8.0645447 0.43991303 10
-41.921482 -8.0531082 -0.40464985 45
-41.90398 -8.0335655 0.47435516 4
-41.878628 -8.0029526 0.45014626 1
-41.879833 -8.056694 0.35327333 22
-41.836647 -8.054882 0.44420666 6
-41.8592 -8.0924377 -0.18869257 71
-41.881386 -8.0497971 -0.18455452 68
-41.93211 -8.069931 -0.47295475 18
-41.894203 -8.0454292 0.38836241 23.5
-41.891953 -8.055172 0.43397921 11.5
-41.897152 -8.032444 0.4754712 2
-41.849773 -8.0770798 0.36482441 23.5
-41.884876 -8.0698738 0.23105663 255
-41.876717 -8.0649567 0.34219664 57
-41.911011 -8.0598145 -0.46095872 42
-41.881901 -8.0570793 0.401281 10
-41.902515 -8.0517349 -0.1939463 65
-41.883793 -8.0649681 -0.43833423 41
-41.925236 -8.0411224 0.44562888 15
-41.88504 -8.0777893 -0.0043449998 255
-41.908237 -8.0684929 0.0052512898 255
-41.940193 -8.0442009 -0.22340834 50
-41.910099 -8.0710754 0.22168416 255
-41.826935 -8.0785484 0.21636409 255
-41.958355 -8.0491295 -0.28542489 45
-41.931583 -8.0389252 -0.17225844 44
-41.89238 -8.0774384 0.0064527998 255
-41.808975 -8.0589714 0.28206849 2
-41.827652 -8.0303726 0.18078345 6
-41.826504 -8.0744934 0.19993103 2
-41.77824 -8.022049 0.11023152 3
-41.77021 -8.0425491 -0.12203181 18.5
-41.755436 -8.0050621 0.1737424 255
-41.752804 -8.0145798 -0.32802942 6
-41.749805 -7.9654856 0.021350769 64
-41.743843 -8.0290718 0.28317857 72
-41.749058 -8.0675983 0.34549761 56
-41.708927 -7.9318986 -0.34617016 44
-41.757339 -8.05793 -0.16590488 65
-41.775993 -8.0625572 0.42009521 19
-41.777821 -8.0585384 0.27028993 96
-41.726257 -7.9985037 0.45980376 25.5
-41.78661 -8.0342007 0.37598461 67.5
-41.743927 -7.9674835 0.34506676 53.5
-41.711891 -7.9376369 -0.38527435 18
-41.716011 -7.9675202 -0.24439092 30
-41.722725 -7.9322691 -0.21533599 13
-41.729446 -7.9156489 -0.32598719 17
-41.720192 -7.9507885 -0.18745962 16
-41.724812 -7.947556 -0.20191297 15.5
-41.777958 -8.1031389 0.29867214 140
-41.709568 -7.9505954 0.11170992 200
-41.744675 -8.0451241 0.15702954 129.5
-41.786346 -8.0485115 -0.00187467 16
-41.745399 -8.0091772 0.43682933 19.5
-41.797897 -8.0939837 0.4950195 11
-41.718304 -7.963089 0.47736612 26
-41.70652 -7.9350505 -0.15434282 12.5
-41.720928 -7.9254465 0.46196324 17
-41.758678 -8.0311613 0.39438406 20.5
