# .PCD v0.7 - Point Cloud Data file format
VERSION 0.7
FIELDS x y z intensity
SIZE 4 4 4 4
TYPE F F F F
COUNT 1 1 1 1
WIDTH 1443
HEIGHT 1
VIEWPOINT 0 0 0 1 0 0 0
POINTS 1443
DATA ascii
-13.214635 28.212591 0.48431373 4
-13.222474 28.221397 1.0445487 5.5
-13.274392 28.209621 1.5969625 5.5
-13.235529 28.219364 2.1787934 6
-13.199998 28.248243 2.7640901 4.5
-13.229177 28.221481 0.63840294 3.5
-13.286309 28.223164 1.1862917 4
-13.200248 28.242405 1.7769389 6
-13.174307 28.278711 2.3613577 6
-13.220428 28.377584 2.9438796 4.5
-13.178336 28.274471 0.70897371 4
-13.313476 28.230782 0.6717605 1.5
-13.307887 28.221651 1.2361933 3
-13.170513 28.264103 1.8341546 6
-13.215644 28.25057 2.3884218 6
-13.175579 28.272524 2.9726865 6
-13.198717 28.239313 0.48311922 3
-13.279248 28.187952 0.45753297 2
-13.240192 28.215384 1.5996084 6
-13.195656 28.231178 2.1739235 6.5
-13.198447 28.233444 2.7416368 7
-13.225408 28.212862 0.83356524 4
-13.318811 28.208126 1.3754681 2
-13.150555 28.294949 1.4245007 4
-13.262093 28.214067 1.9481554 6
-13.209057 28.223829 2.5262251 7
-13.165653 28.251968 3.1109564 5
-13.220318 28.189661 0.77480567 4
-13.229445 28.219347 1.3403431 5.5
-13.234723 28.246782 2.4706757 6
-13.226249 28.228485 3.0407 6
-13.284497 28.203478 0.64116961 3
-13.288616 28.205408 1.2058549 4
-13.197173 28.230373 1.2310783 6
-13.242533 28.210634 1.7791281 6
-13.175396 28.265472 2.9447663 6
-13.265576 28.238317 2.9197836 6
-13.233707 28.224922 0.78635347 3.5
-13.25029 28.233694 1.3516165 4.333333
-13.206544 28.221901 1.9249467 6
-13.232634 28.249674 2.4944069 6
-13.161405 28.282692 3.0940242 5
-13.275622 28.204607 0.52598131 3
-13.182283 28.216255 1.1152264 6
-13.227027 28.194098 1.6626554 7
-13.240944 28.214411 2.2302349 5
-13.256842 28.235353 2.8034582 6
-13.163604 28.255209 2.8277774 5
-13.151249 28.31414 0.55854785 0
-13.257123 28.202423 0.51900399 3.5
-13.259097 28.203236 1.0832297 5
-13.212428 28.211023 1.6560619 6
-13.177343 28.241026 2.2356963 6
-13.262651 28.202286 2.209928 5
-13.229621 28.35284 2.8179965 5.5
-13.293088 28.211035 1.4980354 6
-13.203491 28.239172 1.5242977 6
-13.215663 28.241949 2.090415 6
-13.225256 28.234406 2.6603467 6
-13.214534 28.233992 0.95922488 5
-13.223779 28.22974 1.5197644 6.5
-13.230676 28.215281 2.0847182 6
-13.207335 28.244259 2.6698842 6
-13.221095 28.216082 0.47026768 4
-13.194953 28.240252 1.0483688 6
-13.207355 28.237331 1.6091555 6
-13.214333 28.216818 2.1738675 7
-13.197334 28.25432 2.7603867 6
-13.240227 28.214857 0.57085377 3.5
-13.166306 28.250231 1.1625739 6
-13.215122 28.217369 1.7093198 7
-13.187591 28.238708 2.2897387 7
-13.258137 28.247858 2.8503637 6
-13.163574 28.263739 2.8756533 6
-13.207787 28.246527 0.67923462 3
-13.253381 28.202566 1.2293495 5
-13.182054 28.243425 1.8182343 6
-13.242774 28.231907 2.3720355 7
-13.211121 28.237255 2.9564381 6
-13.295759 28.165808 0.92637736 1
-13.195417 28.169127 0.95319611 5
-13.261901 28.162537 1.5045089 4
-13.14346 28.19964 2.107286 7
-13.166117 28.205778 2.6754076 6.5
-13.177229 28.227755 0.82761562 4
-13.25548 28.173239 0.80101407 4
-13.265392 28.181232 1.365131 4
-13.180105 28.199596 1.9578968 5
-13.184364 28.214886 2.5299983 5
-13.194748 28.203857 3.0960903 4
-13.214223 28.285957 0.71646416 3
-13.120582 28.296906 1.3036395 6
-13.090675 28.33465 1.8844217 5
-13.166498 28.274649 1.8571972 5
-13.13298 28.315662 2.4400735 6
-13.193707 28.31312 2.9950376 4
-13.097885 28.324345 3.018029 4
-13.171984 28.295002 0.74802119 3.5
-13.154142 28.335253 1.3059281 4.333333
-13.160711 28.30636 1.8566021 6
-13.098642 28.355892 2.4345472 6
-13.104286 28.333967 2.9909387 5
-13.202549 28.265108 0.70316827 4
-13.292824 28.23748 0.6814853 3
-13.275873 28.24707 1.2371241 4.5
-13.217319 28.274818 1.8088757 5.5
-13.28892 28.15871 0.69162381 3
-13.269144 28.18729 1.8051113 6
-13.295879 28.16213 2.3560724 7
-13.290614 28.194178 2.923384 4.5
-13.252168 28.191298 0.85963142 3
-13.294534 28.176846 1.4076055 5
-13.135642 28.276291 1.4583031 1
-13.161897 28.228226 2.0052607 5
-13.21054 28.208303 2.5507176 4
-13.269541 28.224823 3.1044211 3
-13.164413 28.208309 3.1236484 4
-13.123603 28.281092 1.1488165 5
-13.097789 28.295729 2.2507474 5
-13.238802 28.244774 0.77296513 2.5
-13.113008 28.312523 0.7950601 2
-13.27673 28.250746 1.3084154 3
-13.137008 28.280701 1.329212 4.5
-13.164446 28.259232 1.8597724 6
-13.154888 28.270496 2.4038713 7
-13.317215 28.182173 0.99286163 3
-13.221021 28.212585 2.0746689 6
-13.294617 28.214907 2.6099026 6
-13.256679 28.20051 3.1538472 5
-13.214077 28.23468 0.52618474 4
-13.295015 28.205751 1.0485879 3
-13.206997 28.23667 1.0639485 6
-13.246521 28.231586 1.5908455 6.5
-13.194389 28.243834 2.1375768 6
-13.291332 28.25559 2.6695395 6
-13.202176 28.223633 1.0365415 4
-13.239752 28.230034 1.5620182 5.5
-13.2764 28.231009 2.0928364 5
-13.173377 28.251171 2.6478405 6
-13.154676 28.24564 3.1896081 5
-13.161583 28.3016 0.51925337 3
-13.236953 28.272734 1.0341979 3.5
-13.112926 28.340244 1.0566772 3
-13.27615 28.279583 1.5619224 4
-13.174447 28.266237 1.5743994 6
-13.209442 28.182833 0.48047477 4
-13.139731 28.268051 0.49635392 1
-13.294205 28.169628 0.99712139 3
-13.203863 28.190056 1.0120308 5
-13.243353 28.188013 1.5328145 5.5
-13.283348 28.184406 2.0588212 6
-13.241414 28.223251 2.6059058 5
-13.180908 28.219923 3.150666 2
-13.210393 28.206617 1.009143 3.5
-13.086777 28.270594 1.0384196 2
-13.275216 28.213715 1.5270075 2
-13.177307 28.205282 1.5442396 6
-13.10661 28.231461 2.0944629 6
-13.192787 28.202307 2.0752292 6
-13.158758 28.219223 0.98121643 3.5
-13.132032 28.231617 1.5152643 4.333333
-13.141237 28.199976 2.042624 6
-13.169464 28.230183 2.5785503 6
-13.219287 28.187153 0.97168577 4
-13.273209 28.173187 2.5381303 7
-13.203231 28.237503 7.4336905 3
-13.190256 28.19227 0.66602767 3
-13.232982 28.194361 1.1806779 3.666667
-13.222046 28.172464 1.7033929 6
-13.220415 28.183823 2.2288806 7
-13.220959 28.201283 2.7580054 6
-13.135941 28.195574 0.97777969 2.666667
-13.177122 28.17609 1.4926786 3.5
-13.090824 28.207233 2.5548365 7
-13.089987 28.198709 3.0839653 5.5
-13.244931 28.18321 0.5968889 3
-13.118673 28.240517 0.6211859 2
-13.291831 28.192293 1.1091708 2
-13.152788 28.196848 1.1323647 4
-13.193493 28.179426 1.6446002 6
-13.194953 28.190456 2.1681223 7
-13.272148 28.17609 0.99724317 3
-13.294119 28.16662 1.5114423 4
-13.208185 28.190239 2.5573096 6
-13.19486 28.225718 3.0839975 0
-13.167957 28.184813 0.99503565 2.666667
-13.163114 28.181814 1.5128888 3.666667
-13.155675 28.165968 2.0310917 6
-13.25797 28.224985 2.5434644 0
-13.189447 28.189379 0.70579565 3
-13.242846 28.198391 1.2141337 3.333333
-13.203625 28.202463 1.7402884 6
-13.255308 28.199461 2.2521555 6
-13.164663 28.204765 2.2685678 6
-13.176224 28.228325 2.7917869 2
-13.315224 28.182972 0.55576873 3
-13.187653 28.23093 0.58424807 1
-13.23954 28.189167 1.0888262 4.5
-13.254164 28.188337 1.6043062 6
-13.26887 28.186251 2.1216378 5.5
-13.245466 28.220348 2.652462 3
-13.192577 28.251453 3.7208388 1
-13.221764 28.180096 0.74916285 3.5
-13.210114 28.199387 1.2752616 3.666667
-13.235524 28.172989 1.7903738 6
-13.178612 28.186102 2.3302627 6
-13.178684 28.194744 1.0514361 3
-13.065063 28.181934 2.1122463 6
-13.078583 28.185658 2.6322365 4.5
-13.067728 28.314325 8.7818861 3
-13.284441 28.225138 0.62322783 0
-13.227995 28.219732 1.1563377 5
-13.158861 28.337597 8.3771992 3
-13.198015 28.197426 1.0437 3.5
-13.235992 28.20656 1.5553752 6
-13.228838 28.199444 2.0793767 5
-13.219063 28.223898 3.13661 1
-13.163244 28.291443 8.0705986 4
-13.231489 28.188766 0.73624063 3
-13.142353 28.197262 1.2837368 5
-13.185093 28.18862 1.7977417 6
-13.185183 28.198145 2.3253181 7
-13.140923 28.209488 2.8623621 3
-13.179111 28.225958 0.76848847 3
-13.255722 28.201981 1.2693784 4
-13.168501 28.229074 1.2920268 6
-13.245915 28.215944 1.7941322 6
-13.237207 28.240288 2.3224247 7
-13.273096 28.263872 2.8418465 5
-13.19182 28.272511 5.5298004 0
-13.136203 28.326107 7.7759919 2.5
-13.19748 28.227877 0.65820843 2
-13.28055 28.198879 1.1572059 5
-13.193451 28.229282 1.1811566 5
-13.277479 28.215137 1.6818936 6
-13.273996 28.209961 2.207118 6
-13.272736 28.244844 2.7381554 6.5
-13.265051 28.291693 5.4226499 2
-13.196351 28.282927 7.6572671 4
-13.138572 28.292627 7.5424995 4
-13.137016 28.165207 0.67503524 3
-13.079134 28.197241 1.2109635 4
-13.110466 28.176519 1.7260032 7
-13.097936 28.179773 2.2535474 6
-13.084933 28.193768 2.7793851 7
-13.28789 28.220797 0.37164244 2
-13.19857 28.212584 0.39077401 4
-13.214743 28.241228 0.9041217 3.333333
-13.231285 28.236879 1.4181476 4.333333
-13.248181 28.223499 1.9331377 6
-13.26529 28.248747 2.4517021 7
-13.282974 28.29648 2.9758372 3
-13.222245 28.348049 7.3011298 3.5
-13.201877 28.333147 7.8601184 4
-13.245029 28.271101 0.90563631 2
-13.29108 28.245878 1.4121332 4.5
-13.245699 28.328312 7.8253889 3
-13.183167 28.211309 1.7917674 5
-13.242048 28.199444 2.3003528 6
-13.165803 28.219994 2.8422692 7
-13.179258 28.254999 3.3691363 1
-13.139035 28.263388 7.714272 3
-13.089416 28.198738 0.73092151 2
-13.064549 28.193287 1.2586154 4.5
-13.13069 28.171638 1.7675281 6
-13.150776 28.182106 2.2885938 5
-13.080907 28.193573 2.8274179 7
-13.101678 28.209057 3.3525631 7
-13.240916 28.243 1.6122372 6
-13.286154 28.255472 2.1252794 6
-13.28565 28.285927 2.650872 6.5
-13.269307 28.352482 7.506722 4
-13.181084 28.244444 2.8734283 7
-13.147472 28.297962 7.7604189 4
-13.160997 28.359821 8.9137993 2
-13.138098 28.193943 0.42634937 3.5
-13.192172 28.228395 0.93873233 3
-13.206947 28.249899 1.4602325 2
-13.13811 28.19319 1.9994963 6
-13.106669 28.226791 2.5350819 6
-13.122888 28.241947 3.0620193 5
-13.273087 28.222103 0.48512635 2.666667
-13.272669 28.230764 1.0085251 3.333333
-13.27795 28.232046 1.5308539 4
-13.286185 28.203007 2.0526938 6
-13.290071 28.22423 2.5793948 6
-13.249145 28.236881 3.1171565 5.5
-13.222728 28.203796 0.54131639 1
-13.13566 28.165216 0.56030869 3
-13.145709 28.210934 1.0860671 3.5
-13.159291 28.179556 1.6097312 6
-13.171416 28.202974 2.134625 6
-13.08242 28.179102 2.1530583 7
-13.09675 28.18504 2.678781 7
-13.111174 28.193508 3.2073281 5
-13.060892 28.24773 7.5959263 4
-13.209117 28.169878 0.77031273 3
-13.113067 28.201904 0.78943026 4
-13.210781 28.217665 1.2961247 3.333333
-13.224853 28.205486 1.8199195 6
-13.144792 28.211119 2.3651547 7
-13.156851 28.219673 2.8935971 7
-13.227665 28.219591 0.76081234 3.5
-13.242126 28.230215 1.2900292 5
-13.101298 28.240694 1.3199463 4
-13.250412 28.24461 1.8192992 4
-13.220175 28.239311 2.3571386 7
-13.187739 28.249939 2.8979621 6.5
-13.157055 28.250845 3.4409463 2
-13.093639 28.190794 0.94185126 4
-13.103388 28.178757 1.4708256 6
-13.20253 28.221571 1.9814667 5
-13.115685 28.18203 1.999163 6
-13.125138 28.203632 2.5303159 7
-13.135889 28.21981 3.0640047 6
-13.266203 28.254168 0.93618107 2.5
-13.273911 28.208973 0.93544483 3
-13.195965 28.2139 1.4841714 6
-13.257589 28.225901 2.0070174 5.5
-13.220451 28.234703 2.5505247 7
-13.235988 28.239483 3.0833235 7
-13.163291 28.231174 0.5275082 1
-13.227816 28.222364 1.0475236 4
-13.243097 28.229456 1.5808549 6.5
-13.251339 28.243958 2.1144767 6
-13.308517 28.276773 2.638746 6
-13.218977 28.250986 2.6577668 7
-13.23508 28.251617 3.19221 6
-13.131594 28.210596 0.54393673 2.666667
-13.194302 28.231945 1.0684936 2.5
-13.164813 28.213375 1.6121911 5
-13.097061 28.176291 2.1640599 6
-13.109798 28.208166 2.700398 7
-13.122488 28.242353 3.2404094 1
-13.318933 28.235743 0.51211178 3
-13.227343 28.220814 0.53233331 4
-13.289163 28.247965 1.0580374 4
-13.253349 28.261084 1.6040752 4
-13.276705 28.242533 2.1374717 7
-13.242224 28.274801 2.6860144 6
-13.213327 28.281729 3.2360711 1
-13.283141 28.242558 0.78546774 2.5
-13.267822 28.239475 1.3338997 4
-13.180302 28.206795 1.3567647 6
-13.164587 28.227825 1.9048126 4.5
-13.244104 28.249512 2.430512 6
-13.189256 28.236683 2.9932132 6
-13.209148 28.213249 0.49544048 2
-13.131629 28.172127 1.050594 4
-13.179423 28.213572 1.582521 3.5
-13.092379 28.188587 2.1412439 5.5
-13.061147 28.191692 3.2329884 5
-13.301896 28.2262 0.33990413 3
-13.299461 28.248098 0.88224375 3.5
-13.252979 28.237221 1.9732221 6
-13.249904 28.260063 2.516644 7
-13.244683 28.292864 3.0639448 0
-13.213079 28.331938 6.9776654 3.5
-13.279995 28.271408 0.95193344 6
-13.276772 28.26947 2.048872 5
-13.1988 28.234388 0.64569557 3.5
-13.258365 28.268887 1.179091 4
-13.17243 28.224306 1.1993392 6
-13.18157 28.265585 1.7475268 4.666667
-13.198301 28.257668 2.2941365 7
-13.212044 28.280264 2.8418117 5
-13.220241 28.324242 3.3939743 1
-13.207696 28.236853 0.80933106 3
-13.115315 28.213913 0.83001482 4
-13.180435 28.228533 1.3661976 5
-13.154223 28.21834 1.9266412 6
-13.161885 28.241419 2.4778552 6
-13.242042 28.285336 1.1164275 5
-13.302952 28.273121 1.6595808 6
-13.256577 28.264334 2.2218866 6
-13.257262 28.284554 2.7757349 7
-13.220308 28.292051 7.3266211 7
-13.220679 28.246923 0.49072564 1
-13.145923 28.164207 0.50974572 3
-13.158159 28.15493 1.064051 4
-13.156389 28.189585 1.6214865 5
-13.074787 28.153605 2.1943374 7
-13.077537 28.172773 2.7540646 8
-13.071623 28.199673 3.315608 1
-13.161928 28.216825 0.83169311 3
-13.081035 28.155916 0.85445946 4
-13.095461 28.211163 1.4121037 3.5
-13.111929 28.162014 1.4109051 6
-13.135992 28.189087 1.9702151 6
-13.068702 28.182291 2.5506079 8
-13.077683 28.266058 5.9889388 2.5
-13.256272 28.281528 0.47229037 3
-13.171113 28.227306 0.48905167 4
-13.206024 28.261404 1.0427536 5
-13.200934 28.260809 1.6068927 5.5
-13.239043 28.283945 2.1605494 6
-13.155033 28.224943 2.1758254 7
-13.144497 28.239162 2.7426062 7
-13.130304 28.245764 3.3096142 6
-13.14521 28.286877 5.591342 2
-13.142876 28.14057 0.42866701 3
-13.186896 28.193695 0.98833078 5
-13.103079 28.137621 1.0072293 4
-13.183278 28.216768 1.5582235 3
-13.111389 28.180429 2.7179849 7
-13.120484 28.179787 3.2880611 7
-13.254804 28.215534 0.3852272 2.5
-13.246731 28.204231 0.96641541 3
-13.233307 28.207336 1.5497222 6
-13.261472 28.236385 2.1196313 6.5
-13.226882 28.254536 3.2885559 6
-13.299762 28.315331 5.6169052 1
-13.211502 28.266663 5.6392813 6
-13.240532 28.293999 6.2276888 5
-13.14957 28.252083 6.2512159 3
-13.272481 28.31498 6.8195038 2
-13.217993 28.283033 7.4384012 7
-13.25227 28.30154 8.0401354 4
-13.190426 28.288507 8.6688786 6
-13.135921 28.259644 9.3036928 4
-13.152143 28.335785 9.9433174 2
-13.293202 28.292267 0.50975907 2.5
-13.294411 28.303421 1.0876769 3
-13.300659 28.301197 1.6674942 4.5
-13.149225 28.285824 2.2754636 3
-13.254389 28.304871 2.8363891 7
-13.254434 28.314331 3.4158907 7
-13.196144 28.338566 5.1862454 5.5
-13.199278 28.34016 5.7763333 4.5
-13.24604 28.371925 6.363277 3
-13.150279 28.335705 6.3828325 4
-13.199204 28.362812 6.9735031 3.5
-13.244469 28.401836 7.5727658 2
-13.246224 28.412086 8.1845045 1
-13.155108 28.374664 8.8140516 5
-13.11919 28.340588 9.4394445 4.5
-13.094626 28.423733 10.093757 3.5
-13.307748 28.255266 0.74320287 4
-13.208596 28.232794 0.76528209 4
-13.276228 28.258429 1.335561 5
-13.252089 28.240301 1.9246831 6
-13.133577 28.264986 1.949414 1
-13.266423 28.263107 2.5080519 7
-13.273032 28.2889 3.0925734 6
-13.291546 28.299799 3.6759191 4
-13.230353 28.296785 4.8754425 3
-13.250004 28.30769 5.468533 6
-13.149476 28.285212 5.4935117 3
-13.217613 28.313694 6.0803008 4.5
-13.285845 28.343542 6.6707177 1
-13.213256 28.312204 7.2938223 7
-13.181661 28.319601 7.9191628 3.5
-13.247751 28.362364 8.5294838 2
-13.156047 28.315767 8.5506353 3
-13.179476 28.313244 9.1717043 5
-13.093211 28.339943 9.8364019 3
-13.275519 28.254974 0.47280347 4
-13.227222 28.253288 1.664477 7
-13.291174 28.300438 2.237215 7.5
-13.269273 28.291338 2.8350759 7
-13.276587 28.341923 3.4231491 6
-13.228412 28.315142 4.627449 5
-13.197528 28.32423 5.2340412 4
-13.096491 28.323391 8.9467516 6
-13.088737 28.283434 9.5767393 6.5
-13.2253 28.237694 0.70891118 3
-13.173014 28.218193 1.3222206 5.5
-13.212267 28.237381 1.9072695 6.5
-13.17427 28.271961 3.7135775 1
-13.141289 28.325386 8.6440439 3
-13.185802 28.342003 9.2686682 4.5
-13.116423 28.366039 9.9447699 2.5
-13.262992 28.309078 2.7027936 0
-13.301851 28.292253 3.2942271 1
-13.154042 28.171675 0.61054587 3
-13.165349 28.183504 1.2045572 4
-13.180838 28.198856 1.7979128 6
-13.066309 28.203304 1.8214452 4
-13.184297 28.240971 2.3953235 6
-13.147072 28.245827 3.0021479 7
-13.122535 28.222372 3.610287 7
-13.142886 28.269663 4.8123808 6
-13.145429 28.295893 5.4194126 6
-13.11158 28.289829 6.0374098 3.5
-13.274704 28.260458 0.32096833 2.5
-13.289697 28.278696 0.91971606 3
-13.267942 28.266001 1.5290449 5
-13.242354 28.261238 2.1410201 6.5
-13.23126 28.28318 3.3543875 7
-13.200675 28.283932 3.9675391 5
-13.274636 28.354212 5.1736774 2
-13.189043 28.289766 5.1942029 6
-13.283411 28.39497 5.7877631 0
-13.212449 28.297754 5.8025432 7
-13.178219 28.306082 6.4307528 4
-13.194917 28.329954 8.3157873 6
-13.280758 28.254465 0.74548018 3
-13.279099 28.25868 1.34823 5
-13.313708 28.321413 1.9425277 4.5
-13.270997 28.31358 3.1633053 6
-13.181877 28.266792 3.7906795 7
-13.182481 28.27421 4.3980064 3
-13.191808 28.264429 5.0090451 7
-13.131499 28.262815 5.6370635 4.5
-13.133536 28.266888 6.2539005 3.5
-13.088843 28.24519 6.8847361 5
-13.090306 28.261705 8.1456642 6
-13.233691 28.243542 0.62712872 1
-13.138231 28.201305 0.64580023 2
-13.240446 28.231758 1.2343513 2
-13.141338 28.196266 1.2532378 4
-13.186106 28.224428 1.8525745 5
-13.168653 28.245525 2.4626746 6
-13.21236 28.274147 3.0630517 6
-13.116224 28.230061 3.0820227 7
-13.115709 28.22827 3.6947508 7
-13.20136 28.286644 4.9054451 3
-13.101324 28.241589 5.5403457 6
-13.191724 28.295929 6.1448631 2
-13.09828 28.242411 6.1629176 6
-13.085624 28.248087 6.7893324 5
-13.259251 28.277916 0.66531354 2.5
-13.272079 28.298321 1.276047 4
-13.247528 28.2878 1.8977115 5
-13.257978 28.324924 2.5117543 6
-13.160478 28.284115 2.5356073 5
-13.183653 28.292864 3.1468849 7
-13.2176 28.334377 4.3772264 7
-13.225583 28.374062 5.0007601 3
-13.134829 28.316912 5.0232134 5
-13.229303 28.40802 5.626678 1
-13.152462 28.322031 5.6444554 6
-13.164474 28.351847 6.2708097 6
-13.178437 28.378574 6.9014578 3
-13.085725 28.323338 6.9242029 4
-13.253173 28.210144 0.73243594 2
-13.219318 28.210749 1.9870777 5
-13.170491 28.161272 2.6257372 6
-13.060041 28.150431 0.52912217 3
-13.09503 28.13747 1.1459942 4
-13.165236 28.183073 1.7498455 4.5
-13.147057 28.168921 2.380379 7
-13.114519 28.179499 3.0109394 6.5
-13.09103 28.172798 3.6440835 7
-13.135443 28.212578 4.8895164 6
-13.083065 28.191204 6.1700306 7
-13.101778 28.21785 6.8048902 5
-13.078899 28.221941 8.7637777 6
-13.253239 28.213127 0.29705739 2
-13.301886 28.26181 0.90693545 2
-13.194675 28.236547 0.92828107 3
-13.257469 28.257599 1.5394003 5
-13.257383 28.26898 2.1616223 6
-13.218153 28.25102 2.7941868 7
-13.229509 28.252153 3.418932 7
-13.234615 28.284159 4.6735468 6
-13.190149 28.290974 5.9495306 4.5
-13.189573 28.298172 6.5872517 3.5
-13.148256 28.277636 7.2371473 4
-13.255724 28.350561 8.511488 0
-13.208076 28.205498 0.30318016 2
-13.198458 28.219734 0.92757553 3
-13.227804 28.274511 1.5443912 3
-13.167278 28.253719 2.1800728 4
-13.168074 28.244959 2.8055446 7
-13.168501 28.236679 3.4339654 7
-13.15819 28.24638 4.0628486 7
-13.14389 28.263489 4.6971707 7
-13.137867 28.26359 5.3286619 7
-13.130398 28.267387 5.9675212 7
-13.104601 28.279598 7.253798 6
-13.30871 28.365154 0.63884878 2
-13.294245 28.39711 2.5525093 5
-13.251532 28.389046 3.1997433 6
-13.262615 28.407705 3.8360825 7
-13.281275 28.412785 4.4750357 7
-13.189081 28.189219 0.2840991 1.5
-13.185429 28.226093 0.93005562 2
-13.173515 28.165754 1.5832143 4
-13.122028 28.182026 2.2359014 6
-13.120975 28.219601 2.8798723 6
-13.085529 28.192596 3.534328 7
-13.103174 28.259043 5.4803257 7
-13.108597 28.281223 6.1362228 3
-13.071358 28.262972 6.8018932 3
-13.249651 28.279751 0.57638466 3
-13.279535 28.294582 1.2204996 3
-13.174759 28.255341 1.2462074 5
-13.292891 28.323513 1.8650767 4
-13.204346 28.256269 1.8901697 6
-13.298716 28.376499 2.5108209 2
-13.226254 28.281229 2.5341883 7
-13.243996 28.31345 3.1821575 8
-13.260603 28.345713 3.8293133 6
-13.188532 28.308842 4.5052919 6
-13.214167 28.323917 5.1538053 6
-13.24119 28.385288 6.4722595 5
-13.214603 28.378414 7.1462531 3
-13.196457 28.357397 7.822227 5
-13.129282 28.432652 9.9035692 4
-13.317093 28.306465 0.54302543 2
-13.235943 28.269184 1.2131171 4
-13.294395 28.320929 1.8496108 5
-13.267815 28.284361 2.5087552 7
-13.221302 28.291679 3.1707511 5
-13.282166 28.337557 3.8118262 5
-13.2477 28.322308 4.4754734 5
-13.21736 28.299841 5.1427608 6
-13.232609 28.309099 5.7977324 7
-13.242708 28.328423 6.4617419 7
-13.195118 28.319811 7.1419249 3
-13.256777 28.363138 7.7984338 2
-13.23686 28.28228 9.846633 6
-13.072981 28.330557 9.9038229 3
-13.27387 28.273129 0.084487744 2
-13.190622 28.237059 0.75843364 2
-13.244179 28.296534 1.398454 3.5
-13.253189 28.308224 2.0503633 3.5
-13.222258 28.288401 2.7135704 6
-13.136293 28.249935 3.3927853 5
-13.148685 28.264462 4.0468564 6
-13.15291 28.292692 4.7069554 6
-13.168524 28.30055 5.3636231 7
-13.176764 28.321938 6.029304 7
-13.131304 28.308111 6.7094851 3.5
-13.143204 28.322203 7.3788195 3
-13.2188 28.239153 0.5764426 2
-13.241241 28.264702 1.2295154 3
-13.165169 28.235634 1.9098595 4.5
-13.133265 28.227045 2.5781565 6
-13.163906 28.234827 3.232563 7
-13.177748 28.269848 3.893157 6
-13.099857 28.23571 4.5782423 7
-13.121277 28.256538 5.2418132 7
-13.085831 28.258913 5.9198833 4
-13.061876 28.243786 6.6027174 6
-13.07765 28.260006 7.2763066 6
-13.084438 28.302792 7.9577742 2
-13.194695 28.166542 1.9510713 5
-13.148485 28.179893 2.6247795 5.5
-13.207159 28.238255 3.2717974 2
-13.156614 28.192604 4.6180058 6
-13.050743 28.145576 4.6448579 2
-13.168667 28.217918 5.2864685 5
-13.110239 28.169275 6.6489334 6
-13.130774 28.180357 7.3230696 6
-13.141693 28.207672 8.006485 5
-13.288113 28.400198 2.1800475 5
-13.313171 28.35425 0.44364953 1.5
-13.265518 28.324942 1.1204793 4
-13.203388 28.341805 2.4661748 4
-13.198185 28.36137 3.1337509 5
-13.203936 28.364187 3.8038528 4.5
-13.245325 28.417692 4.4632206 5
-13.150591 28.349421 4.4847913 4
-13.185793 28.421915 6.5087414 3.5
-13.185032 28.433636 7.1931753 3
-13.142902 28.40119 7.8920593 5
-13.150585 28.178923 0.1900245 2.5
-13.16296 28.177067 0.86075318 3.5
-13.19841 28.23181 1.5206085 4
-13.113329 28.15061 1.5422136 6
-13.200628 28.242895 2.1911139 4
-13.13089 28.151831 2.8843536 7
-13.121082 28.178642 3.5576043 7
-13.114307 28.21172 4.9105287 3
-13.118124 28.216717 6.2750554 0
-13.212637 28.224379 0.43563509 2
-13.114193 28.163109 0.45756245 4
-13.105053 28.189785 1.1326928 5
-13.149197 28.228594 1.7967935 6.5
-13.10404 28.201807 2.4824617 8
-13.107185 28.216532 3.8369269 8
-13.177521 28.332415 4.5003891 0
-13.097994 28.246534 5.1990376 7
-13.087309 28.270853 5.8884277 6
-13.084221 28.271156 6.5769372 6
-13.084505 28.278099 7.2679386 6
-13.078873 28.294209 7.9660597 5
-13.072182 28.312717 8.6713305 4
-13.10153 28.278418 9.3686895 8
-13.214268 28.337416 10.056341 1
-13.274508 28.444389 5.6564407 6
-13.263008 28.452219 6.3476429 6
-13.156796 28.159628 0.74016237 3
-13.132647 28.167025 1.4220655 4
-13.113037 28.167641 2.1067903 7
-13.174482 28.259571 2.7723172 3
-13.076723 28.190651 2.7908299 7
-13.113407 28.213675 3.4673796 4
-13.129091 28.236254 4.8322921 6
-13.103115 28.231438 5.5243154 6
-13.071375 28.246323 6.2206802 6
-13.09985 28.29978 9.02705 6
-13.285309 28.30073 0.63361323 2
-13.182648 28.193453 1.3355352 6
-13.208324 28.217405 2.0143795 5.5
-13.221859 28.257675 2.6912279 7
-13.161678 28.193462 3.3883777 3.5
-13.164148 28.237799 4.0722971 6
-13.134459 28.234146 4.7643309 5
-13.186163 28.281178 6.140605 4
-13.151306 28.286114 6.8470502 6
-13.10747 28.261021 8.2705526 5
-13.240038 28.352667 0.67503864 4
-13.31028 28.379204 2.0414438 6
-13.274813 28.386595 2.7333622 8
-13.271662 28.451241 8.3217621 4
-13.254576 28.28721 0.37548673 3
-13.2453 28.280163 1.0727903 4
-13.233128 28.275589 1.7670563 7
-13.280519 28.397453 2.4475451 1
-13.207247 28.290216 2.46522 7
-13.185413 28.297661 3.1608691 6
-13.164358 28.304802 3.8627634 6
-13.233946 28.38335 4.5463748 2
-13.1492 28.291111 4.5636654 5
-13.195681 28.368549 6.6660991 3
-13.128845 28.333992 7.3931003 3
-13.155094 28.382633 8.1092176 3
-13.151764 28.207821 1.9999433 4
-13.055738 28.190706 4.8181696 2
-13.270611 28.304232 0.76425779 3
-13.193224 28.203096 0.78596151 3
-13.271725 28.301676 1.4698728 4
-13.177826 28.222673 1.4914697 5
-13.262878 28.311117 2.1730337 6
-13.176092 28.221983 2.1940532 7
-13.214588 28.270498 2.8896055 4.5
-13.252466 28.318651 3.5829611 3
-13.187429 28.283949 5.0143704 3
-13.220514 28.335169 6.4322653 3
-13.167631 28.298746 7.1639447 2.5
-13.218872 28.331354 7.8771248 2
-13.113594 28.264116 7.9010172 3
-13.149103 28.319349 8.6263971 2
-13.222961 28.323267 9.3437433 6
-13.267368 28.288387 0.32903105 3
-13.153633 28.234295 0.34519726 4
-13.238228 28.274281 1.0360789 4
-13.218819 28.246738 1.7451875 7
-13.213125 28.303715 2.4453137 6
-13.23629 28.321983 3.1474345 7
-13.21274 28.346863 4.563715 3.5
-13.23188 28.358093 5.2699547 5
-13.208139 28.33337 5.9851713 7
-13.170954 28.326923 6.7075138 5
-13.123001 28.335213 7.4386768 3
-13.206547 28.378796 8.1498833 6
-13.175278 28.36591 8.8890219 5
-13.161579 28.329559 9.6272917 6
-13.293407 28.355896 0.69199175 3
-13.251318 28.332424 2.1198523 6
-13.271597 28.36834 2.824369 7
-13.254337 28.350006 3.5404503 6
-13.208082 28.32682 4.9757285 6
-13.233944 28.405308 6.4085159 2
-13.158016 28.378956 8.613863 6
-13.165306 28.327557 9.3507891 7
-13.125223 28.176043 1.5965099 5
-13.074436 28.166037 2.3161023 7
-13.172382 28.196117 4.790205 1
-13.099771 28.19978 9.2064295 2
-13.043283 28.162245 6.6349282 6
-13.058962 28.195154 8.1226387 2
-13.098648 28.209623 9.619257 4
-13.206228 28.214943 0.2177726 1.5
-13.242729 28.207878 0.97253573 1
-13.189156 28.203995 1.7367126 1
-13.135307 28.187332 2.5009432 1
-13.145651 28.312969 3.2543492 1
-13.129858 28.261726 4.0215282 1
-13.09881 28.227074 4.7882075 1
-13.100441 28.290539 6.3209414 1
-13.08283 28.23904 7.0963354 2
-13.074738 28.146908 2.3530879 1
-13.2764 28.327232 0.25366104 3
-13.301546 28.416584 1.0352637 4
-13.274141 28.354099 1.8270515 6
-13.202635 28.340458 2.6236248 6
-13.251829 28.401817 3.4024506 5
-13.171469 28.396549 4.9973292 2.5
-13.177883 28.400288 5.7905293 6
-13.125919 28.363136 6.5958452 4
-13.177324 28.423569 7.3928447 3
-13.108053 28.405998 8.213316 5
-13.106686 28.419964 9.0308905 2
-13.196674 28.381313 5.4733896 4
-13.212002 28.322033 6.016921 5
-13.213612 28.346561 8.9067459 5
-13.096107 28.28529 5.7297049 5
-13.056442 28.225636 9.4414034 4
-13.286606 28.159389 1.0056609 4
-13.270056 28.23637 2.5858231 5
-13.18898 28.200546 1.8109826 4
-13.276831 28.242268 1.1009269 4
-13.275045 28.327816 5.4740391 5
-13.197287 28.204323 0.9751848 3
-13.233486 28.251816 2.2304347 4
-13.073254 28.179173 1.2102197 3
-13.187293 28.235794 1.0747658 4
-13.249646 28.276176 1.9528763 5
-13.238216 28.341621 1.3866855 3
-13.256994 28.408154 7.0130234 2
-13.288323 28.366394 6.4079895 3
-13.182961 28.389915 7.7819691 3
-13.166793 28.250629 0.89060581 6
-13.07818 28.336269 8.9422531 4
-13.196335 28.287983 1.7369246 4
-13.096416 28.265392 0.8591193 4
-13.08588 28.318649 0.90443975 3
-13.104967 28.401695 8.7499943 3
-13.181101 28.260246 1.2958093 5
-13.278792 28.459579 9.7120104 3
-13.078133 28.225594 0.89705396 4
-13.124388 28.339104 6.4808531 4
-13.097548 28.250458 1.4404249 5
-13.093605 28.398094 6.2557864 2
-13.132751 28.375549 7.520534 3
-13.181736 28.393028 8.7952223 3
-13.217675 28.303974 0.91298044 3
-13.17515 28.229065 1.4748017 5
-13.217809 28.259209 0.7627629 5
-13.20353 28.284485 1.9903219 6
-13.182935 28.331429 6.9269147 3
-13.169785 28.344933 9.4298773 5
-13.133341 28.18708 1.1766522 5
-13.23027 28.284412 1.2608875 3
-13.255522 28.362553 7.3882537 2
-13.21353 28.365223 8.6236725 3
-13.205762 28.26302 1.1065549 4
-13.076695 28.351078 7.1968312 4
-13.089683 28.334629 8.4287672 2
-13.115865 28.365955 9.6719885 3
-13.106104 28.377693 6.9243603 2
-13.139904 28.306877 0.92126215 4
-13.192665 28.315819 2.1210532 6
-13.17042 28.367783 6.9329104 4
-13.084746 28.267632 0.42300659 3
-13.138884 28.342396 9.2477589 5
-13.308285 28.241028 0.55432296 5
-13.315479 28.267204 1.7397871 5
-13.118475 28.413673 8.890686 5
-13.199121 28.273399 1.31678 5
-13.208188 28.284004 7.1054397 3
-13.210851 28.269764 9.465066 4
-13.205578 28.263092 1.1730267 5
-13.197291 28.328304 9.3609486 4
-13.314202 28.252945 2.033268 5
-13.277892 28.329601 6.6649375 5
-13.277837 28.374451 7.8388267 3
-13.24355 28.324139 9.0124311 6
-13.249347 28.303574 8.9661417 3
-13.122892 28.315334 0.55744851 2
-13.261036 28.252056 1.7080477 4
-13.109299 28.281681 1.2364768 4
-13.217524 28.278339 8.0914612 4
-13.089605 28.295605 1.7711458 6
-13.198999 28.236088 0.57631791 2
-13.102152 28.310741 1.6996107 5
-13.220266 28.192039 0.81637108 4
-13.130922 28.294422 6.501935 2
-13.137331 28.336037 8.8057957 3
-13.165797 28.225639 1.0825279 4
-13.125978 28.270676 7.9289541 3
-13.175169 28.36813 8.0297318 2
-13.184204 28.313034 9.16961 6
-13.164656 28.361029 10.430885 2
-13.24881 28.26656 1.0950568 5
-13.19375 28.398914 7.8935404 5
-13.218992 28.247322 0.54140925 3
-13.162867 28.252129 1.6568176 5
-13.132366 28.33778 7.3056273 3
-13.091606 28.376663 8.4400339 4
-13.295336 28.382242 8.2082996 3
-13.178933 28.32753 0.7821728 4
-13.173743 28.357132 6.4276567 4
-13.205342 28.193224 0.93843699 2
-13.168765 28.219404 2.0624664 5
-13.13046 28.339367 1.1168469 2
-13.288434 28.201424 1.111035 3
-13.095422 28.393402 7.8909826 3
-13.110089 28.361797 9.0342846 7
-13.297736 28.280914 0.51856309 4
-13.219314 28.345329 7.2792535 4
-13.283002 28.35606 8.4157867 2
-13.121308 28.367889 9.5551271 4
-13.315487 28.279205 0.50131655 3
-13.200228 28.408054 6.1337442 2
-13.290447 28.391575 7.2634864 3
-13.130401 28.175085 0.52833855 3
-13.112924 28.215189 2.7676995 7
-13.177933 28.345978 5.6015992 4
-13.190145 28.354179 9.0019321 7
-13.304766 28.356365 6.4756312 5
-13.258671 28.451309 7.6175408 2
-13.160552 28.241484 0.31271675 5
-13.127053 28.28797 1.4482033 5
-13.12218 28.301485 5.9290814 4
-13.093312 28.354483 7.0618558 5
-13.175872 28.33238 9.3117609 2
-13.276248 28.19976 1.1973456 5
-13.211261 28.240646 2.3065348 6
-13.116628 28.345955 6.7385969 3
-13.152074 28.33918 8.9616842 4
-13.077489 28.371841 10.094208 2
-13.247258 28.183369 0.23892626 2
-13.25727 28.247002 1.3480629 5
-13.21172 28.389549 9.1509514 3
-13.229557 28.238937 1.6754268 4
-13.103991 28.32616 6.1315875 5
-13.133076 28.358936 7.2461882 6
-13.149532 28.36618 8.3664131 3
-13.138475 28.321186 9.4780607 6
-13.122637 28.328491 9.2052813 3
-13.159149 28.299831 6.9917798 3
-13.118206 28.360649 8.0971823 4
-13.216886 28.232109 0.7669118 4
-13.110373 28.238361 1.8253531 6
-13.12501 28.3312 6.0584073 4
-13.110414 28.323757 8.1868076 2
-13.303821 28.332897 6.6301818 3
-13.218514 28.396442 9.8409786 4
-13.291736 28.394962 9.1307125 3
-13.11972 28.243395 2.1801534 5
-13.258014 28.410328 7.7591114 3
-13.2898 28.384674 7.1451564 3
-13.230855 28.407814 9.2282772 4
-13.130431 28.202948 1.0519499 2.5
-13.101243 28.225187 2.0593004 6
-13.227687 28.329075 0.7369563 2
-13.287425 28.278019 2.7341869 5
-13.224528 28.34269 5.7510409 5
-13.277997 28.361652 6.7671552 2
-13.152715 28.430122 7.7916713 2
-13.187562 28.412849 8.8169117 5
-13.299633 28.27467 0.78432393 6
-13.306431 28.277695 1.7741382 6
-13.199545 28.423576 7.7880621 2
-13.211554 28.43671 8.8103752 4
-13.274962 28.267611 0.31452203 2
-13.318557 28.226873 1.3038023 5
-13.279212 28.321966 6.281414 6
-13.215224 28.339121 8.2907829 3
-13.111791 28.405008 9.31322 2
-13.266185 28.311899 9.3009968 5
-13.271405 28.234426 0.59420741 2
-13.248549 28.253752 1.5766324 5
-13.25768 28.286783 6.5193934 1
-13.171786 28.352877 7.531415 5
-13.113585 28.321592 9.5361605 6
-13.313601 28.275366 1.1376851 3.5
-13.19512 28.436472 6.0113797 1
-13.198603 28.404089 6.9920244 3
-13.205051 28.376966 7.9799128 4
-13.212595 28.351713 8.9724245 7
-13.213706 28.205444 0.89409161 4
-13.241075 28.201492 1.8585093 6
-13.186841 28.269253 5.7275114 3
-13.073024 28.315601 7.689281 4
-13.102181 28.314384 8.6790199 5
-13.151557 28.350727 9.6743555 4
-13.217329 28.281046 7.0159745 5
-13.226963 28.237249 7.9833875 2
-13.091877 28.291788 8.9648371 2
-13.141266 28.320982 9.9591227 3
-13.215473 28.351488 6.113657 1.5
-13.248981 28.361078 7.0784426 3
-13.209814 28.417162 8.0535936 4
-13.133429 28.404921 9.0277958 6
-13.292677 28.339327 9.0108614 1
-13.258639 28.425533 8.0590019 1
-13.167485 28.331043 7.2163844 3
-13.267581 28.300148 8.1597195 2
-13.209609 28.329449 9.1244764 8
-13.150773 28.356472 10.097408 1
-13.24696 28.287592 0.41292787 3
-13.294891 28.209826 1.3234417 6
-13.233604 28.312548 5.9318833 6
-13.153801 28.345194 6.8641515 3
-13.228508 28.315508 7.7899098 2
-13.149668 28.349741 8.7341728 4
-13.071856 28.386015 9.6851234 3
-13.258566 28.379488 9.6862621 2
-13.264135 28.24226 0.82862002 2
-13.2472 28.326439 5.3937478 4
-13.212164 28.373547 7.2384615 4
-13.267088 28.358006 8.1657982 4
-13.141825 28.378098 9.0957146 4
-13.12491 28.306374 7.1727338 1
-13.20672 28.350266 9.9517069 2
-13.086153 28.253677 2.3298759 7
-13.096613 28.287132 4.976923 2
-13.081804 28.296707 7.645359 3
-13.11363 28.255898 9.4417 2
-13.140176 28.284756 2.3156273 6
-13.132634 28.323589 5.8899574 2
-13.080432 28.374142 8.6196718 1
-13.139001 28.414009 9.5392962 1
-13.223927 28.237585 1.7909586 6
-13.105953 28.306181 5.3176451 5
-13.108162 28.320784 6.2015467 5
-13.107735 28.314299 7.0846734 4
-13.115372 28.321089 7.9756637 2
-13.075373 28.390123 9.7980185 2.5
-13.241814 28.217649 1.6927207 6
-13.145279 28.346102 5.1979709 4
-13.144571 28.340765 6.0705972 5
-13.154144 28.352457 6.9506149 5
-13.158005 28.353338 7.835361 4
-13.175976 28.377356 8.7309799 2
-13.200024 28.409998 9.6380434 3
-13.303648 28.332537 7.1530161 6
-13.277966 28.362234 8.0350018 4
-13.244274 28.377398 8.9222069 5
-13.290472 28.376497 9.8100615 2.5
-13.2641 28.29002 4.8133569 2
-13.137124 28.405067 5.6989474 1
-13.261474 28.320583 5.6738057 3
-13.253024 28.341087 6.5380282 3
-13.238811 28.351192 7.406775 2
-13.222798 28.357628 8.2805166 2
-13.19699 28.34623 9.1582088 7
-13.251925 28.335875 6.2170377 5
-13.243111 28.372168 7.0820336 6
-13.222458 28.387514 7.9510636 4
-13.183867 28.37219 8.8187323 6
-13.195593 28.442301 9.7045546 2
-13.288881 28.402283 6.7634339 5
-13.252752 28.426956 7.6167769 3
-13.199102 28.316387 4.9360523 5
-13.234854 28.324211 5.7618675 2
-13.149416 28.412987 6.6121268 1
-13.255062 28.305702 6.5886159 3
-13.224209 28.342625 7.4343667 5
-13.17528 28.349388 8.2791882 5
-13.132807 28.367805 9.1247139 6
-13.098755 28.397964 9.9858332 1
-13.092303 28.275066 5.7704625 2
-13.084315 28.295387 6.6014104 2
-13.064658 28.2957 7.4349265 1
-13.067914 28.333351 8.281559 2
-13.201061 28.316273 5.5329819 5
-13.204914 28.322132 6.3585558 6
-13.219294 28.340828 8.029974 5
-13.216873 28.33519 8.863924 3
-13.100611 28.414474 9.739419 5
-13.218426 28.422226 10.145001 2
-13.28316 28.31753 5.5954938 5
-13.265679 28.349699 6.4049811 5
-13.217818 28.392729 8.0376339 2
-13.149167 28.400019 9.688879 3
-13.298437 28.438534 7.2334905 3
-13.25359 28.424995 7.3295326 6
-13.249151 28.434532 8.9450665 4
-13.312776 28.221205 2.1904237 1
-13.209914 28.332323 5.2979751 5
-13.180142 28.415895 6.0986009 1
-13.280324 28.318098 6.0823364 3
-13.209735 28.349958 6.8769784 4
-13.155345 28.378538 7.6730971 2
-13.216741 28.347803 8.4669981 1
-13.134871 28.342863 9.2753038 3
-13.285818 28.357523 2.8429525 1
-13.2754 28.358797 5.1111493 6
-13.27359 28.403173 5.881772 2.5
-13.239267 28.394854 6.6522083 5
-13.10178 28.239466 5.1984744 5
-13.141108 28.241896 5.9517078 4
-13.079727 28.272936 7.4857512 3
-13.263617 28.402967 7.1839037 2
-13.235288 28.281109 5.6017933 1
-13.169978 28.33567 6.3535166 1
-13.204543 28.302834 7.1022711 1
-13.114579 28.330544 7.8598728 3
-13.062367 28.301289 9.3757553 4
-13.212584 28.218681 7.0141058 4
-13.168464 28.234756 7.7641273 3
-13.28858 28.333881 5.6428714 5
-13.240812 28.360912 6.37959 4
-13.208942 28.412834 7.127893 1
-13.272259 28.373222 7.8629718 5
-13.280241 28.347012 9.352376 1
-13.114323 28.426731 10.131005 2
-13.226405 28.427502 9.5018759 2
-13.194829 28.226849 8.0164175 6
-13.135831 28.225769 9.4677639 6
-13.20145 28.395569 5.105175 6
-13.197861 28.416386 5.8089676 3
-13.179363 28.412895 6.5136271 5
-13.161503 28.436131 7.9453945 6
-13.216927 28.431793 8.6700802 1
-13.126263 28.350452 5.3786697 2
-13.130535 28.367191 6.0754061 1
-13.182575 28.240088 7.058814 2
-13.188408 28.219027 7.7616267 2
-13.148657 28.335321 9.2080069 3
-13.107737 28.417921 6.3571386 3
-13.106071 28.416914 7.0455461 3
-13.101315 28.410734 7.7441349 3
-13.134664 28.362417 5.4516845 3
-13.133222 28.367731 6.1319065 2
-13.194511 28.232445 6.8819394 1
-13.163797 28.25219 7.5663042 2
-13.209733 28.231886 0.28579652 3
-13.182406 28.254238 0.92379415 4
-13.183032 28.225483 1.5540222 4
-13.175069 28.268499 2.1913729 4
-13.151071 28.293449 2.8320293 3
-13.119613 28.361427 1.1903379 5
-13.189518 28.250248 0.29621121 3
-13.175663 28.236862 0.90791839 6
-13.128025 28.298801 2.7601516 6
-13.08576 28.385994 5.9038992 5
-13.118708 28.351879 6.5364137 4
-13.083857 28.397991 7.1867037 3
-13.130447 28.374718 7.8306651 2
-13.088276 28.417263 8.499403 2
-13.129608 28.382107 9.1529999 3
-13.171732 28.226824 0.85421431 4
-13.185286 28.252195 1.4664197 5
-13.173069 28.229301 2.0790329 6
-13.233299 28.225485 2.691179 6
-13.148348 28.280214 6.4493055 3
-13.116283 28.327944 7.104641 3
-13.151232 28.271292 7.7376323 2
-13.088172 28.321619 2.2988937 6
-13.128561 28.273884 0.39999261 2
-13.129992 28.2892 1.0003773 5
-13.129833 28.312431 2.2078788 6
-13.158419 28.26424 0.82093561 2.666667
-13.173267 28.245398 1.4139851 6
-13.147495 28.262671 2.016309 5.5
-13.168721 28.255014 2.6137915 7
-13.107419 28.302618 6.288012 4
-13.089849 28.316645 6.9146962 3
-13.074771 28.346506 7.5520716 2
-13.15212 28.321043 8.1855907 2
-13.125323 28.325245 8.8292589 2
-13.089953 28.322435 9.4828815 3
-13.291883 28.16674 0.46839699 2
-13.253572 28.184805 2.2528267 8
-13.306994 28.164671 2.8451648 6
-13.203884 28.2444 6.5015702 2.5
-13.204673 28.230709 7.1256604 3
-13.16616 28.255121 7.7585855 2
-13.1663 28.269447 0.50997448 2
-13.138966 28.282949 0.46886173 3
-13.195499 28.279051 1.0464298 0
-13.096665 28.313271 1.6382762 6
-13.089727 28.298342 2.2228415 6
-13.216879 28.182365 0.50841439 4
-13.287856 28.197144 1.082873 3
-13.154188 28.263851 1.6792409 5
-13.199917 28.228302 2.2556176 8
-13.156202 28.244452 2.839066 6
-13.144207 28.260109 5.8054357 1
-13.11493 28.296745 6.4227118 3
-13.180322 28.293266 7.0316916 2
-13.127612 28.293606 7.6518779 2
-13.238623 28.239344 0.51186746 2
-13.264038 28.24605 1.0892447 1
-13.124621 28.265692 1.6790916 6
-13.106594 28.297606 2.2648821 7
-13.20491 28.266914 2.2533462 7
-13.172041 28.267778 2.8419752 6
-13.113895 28.283241 0.60782862 4
-13.096363 28.300003 1.1879578 6
-13.212111 28.305279 1.176131 1
-13.188186 28.232412 0.90750039 3
-13.186133 28.242405 1.4850149 4
-13.126656 28.248877 2.0720837 7
-13.134751 28.277288 2.6553612 6
-13.136234 28.293348 3.2354231 2
-13.086074 28.341898 6.8222647 2.5
-13.231475 28.259083 0.48194933 3
-13.132349 28.285856 0.49782324 3
-13.170753 28.27401 1.0657319 5
-13.166144 28.287563 1.6444679 6
-13.11907 28.327911 2.2330496 8
-13.209568 28.284164 2.2168655 7
-13.078729 28.36668 6.3661747 4
-13.087825 28.414219 7.6002436 2
-13.162027 28.251564 0.87351424 4
-13.242435 28.252182 1.4414688 3
-13.119637 28.291014 2.0470331 6
-13.096952 28.30463 2.6377497 6
-13.130543 28.29332 0.44681352 3
-13.174973 28.245323 1.0130292 5
-13.096143 28.31053 1.0337595 6
-13.144337 28.269287 1.6006738 6
-13.108754 28.284216 2.1844928 6
-13.124218 28.287004 2.7652059 6
-13.201785 28.239611 0.81967711 3.5
-13.136521 28.272562 1.4188836 5.5
-13.113285 28.277452 2.0073888 6
-13.171976 28.267044 0.48311073 2.333333
-13.318958 28.249613 1.0353656 0
-13.156646 28.255642 1.0704834 5.5
-13.198243 28.247049 1.6469052 6
-13.198432 28.267126 2.2333426 8
-13.14462 28.284941 2.8365071 6
-13.195684 28.289478 3.4231472 1
-13.220773 28.219591 0.7350235 2.5
-13.096189 28.300819 0.77432764 2
-13.174311 28.244745 1.3347092 6
-13.16348 28.229309 1.9227779 6
-13.128811 28.27503 2.527951 6
-13.174312 28.262569 3.1036007 1
-13.082366 28.29598 0.77681839 3
-13.154825 28.220427 0.74987245 4
-13.114718 28.258286 1.3496162 4
-13.14896 28.223364 1.9233245 6
-13.113948 28.26848 2.5287795 7
-13.167148 28.268705 3.1105683 0
-13.081887 28.304991 6.7552023 3
-13.161513 28.23752 0.72889149 3.5
-13.20048 28.227226 1.3027545 4
-13.146203 28.250565 1.9025843 6
-13.142947 28.263689 2.4938352 6
-13.185312 28.256601 3.0747781 6
-13.069503 28.322018 6.717648 3
-13.127729 28.329216 7.3355532 4
-13.069502 28.323326 7.9661794 3
-13.126211 28.251028 0.67367357 4
-13.223851 28.225094 0.64974374 3
-13.120429 28.268297 1.2599453 5
-13.112107 28.279486 1.8476768 6
-13.147855 28.266575 2.4261031 6
-13.14441 28.284821 3.0195355 5.5
-13.15804 28.317919 6.6276512 1
-13.102595 28.325287 7.259778 3
-13.100912 28.342596 8.5246105 2
-13.17035 28.255672 0.72898304 2.333333
-13.114726 28.277073 1.3274063 6
-13.203554 28.233847 1.3025118 5
-13.145915 28.250298 1.9018528 7
-13.156179 28.290388 2.4953287 6
-13.131779 28.260065 3.0842566 5
-13.079463 28.341557 6.7198563 2.5
-13.080275 28.344006 7.3441877 4
-13.081202 28.352348 8.6087608 2
-13.109701 28.294106 0.81860274 4
-13.194718 28.243523 0.79276007 3
-13.246284 28.248837 1.3674873 3
-13.105015 28.297346 1.4051584 4
-13.097841 28.294493 1.9927804 6
-13.139147 28.276655 2.570919 7
-13.115183 28.348043 3.1816988 1
-13.100373 28.334181 6.8004518 3
-13.116626 28.34733 8.0547934 1
-13.077691 28.37534 8.7092791 3
-13.117283 28.271008 0.82157177 4
-13.203894 28.224054 0.79517692 3
-13.264194 28.238113 1.3700697 2
-13.117802 28.275862 1.4081911 4
-13.20285 28.228533 1.9694697 6
-13.162275 28.258369 2.5741622 7
-13.105471 28.32625 6.8189225 2
-13.109085 28.314611 7.441422 3
-13.072054 28.33102 8.0803976 3
-13.168391 28.250647 0.74917608 2.333333
-13.161034 28.2367 1.3349333 5
-13.155274 28.224947 1.9217275 7
-13.222913 28.248003 2.5027673 6
-13.172213 28.253523 3.1072488 5
-13.110401 28.292856 6.7526407 3
-13.083324 28.326576 7.3945117 3
-13.094885 28.309761 8.6552391 2
-13.100051 28.281134 0.51136732 3
-13.227844 28.206694 0.47165868 2
-13.188267 28.240259 1.0708967 4
-13.102422 28.29034 1.6847987 6
-13.146244 28.267937 2.2615409 7
-13.102224 28.288578 2.866194 6
-13.154496 28.283445 3.443831 0
-13.143803 28.327158 6.4829583 1
-13.092284 28.313807 7.1111021 3
-13.107727 28.256979 0.40014747 4
-13.158394 28.252098 0.97278053 5
-13.264641 28.244434 0.94779414 1
-13.210245 28.24859 1.5473288 6
-13.117052 28.283007 2.1627111 5
-13.117049 28.282711 2.7536728 6
-13.076532 28.363728 7.0146828 2
-13.080734 28.352543 7.6347418 2
-13.161557 28.250708 0.98447162 5
-13.133492 28.283707 1.5859587 6
-13.276477 28.241232 1.5451322 1
-13.135641 28.265617 2.1744728 6
-13.108711 28.297653 2.7807438 6
-13.106091 28.330112 6.4169831 3
-13.078822 28.34124 7.0518374 3
-13.271691 28.235672 0.44481307 1
-13.126423 28.274128 0.48587996 3
-13.13008 28.266026 1.0713316 5
-13.23066 28.248047 1.0446117 3
-13.140937 28.271404 1.6586795 5.5
-13.147823 28.266834 2.2483263 8
-13.114897 28.290951 2.8540947 6
-13.095818 28.315071 6.4904056 3
-13.168001 28.222975 0.41320354 4
-13.232169 28.233305 0.98598486 3
-13.131528 28.251442 1.0122108 6
-13.1083 28.305454 1.6143316 6
-13.184169 28.237867 1.5856959 6
-13.140903 28.249784 2.1881135 7
-13.110878 28.287043 2.794266 6
-13.125358 28.338394 5.8101673 1
-13.078773 28.329243 6.429832 3
-13.143567 28.317947 7.0405684 1
-13.122104 28.352261 7.6819243 2
-13.086958 28.364254 8.3302794 2
-13.10575 28.309256 0.4925867 3
-13.181152 28.240831 0.46445999 4
-13.190641 28.245512 1.0502335 3.5
-13.105704 28.279505 1.6644193 6
-13.161556 28.264542 2.240916 8
-13.124576 28.281693 2.8459272 6
-13.082533 28.338221 7.1212139 3
-13.188531 28.251177 0.47576144 3.5
-13.193385 28.242781 1.0611387 4
-13.114287 28.30353 1.0897735 6
-13.206431 28.249607 1.6484896 4
-13.13416 28.302767 2.267309 7
-13.190973 28.284624 2.8455222 7
-13.089605 28.345123 6.5115666 3
-13.110778 28.302252 7.748385 1
-13.188166 28.287209 0.66987956 1.5
-13.23673 28.247196 1.2412454 4
-13.141659 28.27565 1.2692342 6
-13.158737 28.280903 1.8570986 6
-13.175395 28.283302 2.4480376 7
-13.142488 28.294622 3.054018 6
-13.077719 28.368177 6.7323513 3
-13.14681 28.344685 7.3427844 1
-13.126099 28.359196 7.9833021 2
-13.121122 28.410128 8.6478071 3
-13.107836 28.278351 0.79017401 3
-13.239333 28.213835 0.74632084 1
-13.167385 28.252562 1.3617002 4.5
-13.180484 28.242125 1.9490041 6
-13.116382 28.293381 2.5702026 5.5
-13.077552 28.33007 6.8425283 4
-13.143284 28.242596 0.37900862 4
-13.117432 28.270941 0.97813213 6
-13.203429 28.224428 0.94917107 4
-13.169775 28.235977 1.5495359 6
-13.136905 28.248003 2.1514072 6
-13.121154 28.292236 2.7594552 7
-13.097138 28.336201 6.4112782 2.5
-13.074792 28.352245 7.0427756 3
-13.087543 28.322243 7.663754 3
-13.068398 28.337175 8.3072643 3
-13.113175 28.279758 0.84195369 5
-13.197279 28.229626 0.81271011 3
-13.167667 28.246628 1.4131947 5
-13.137056 28.26054 2.0150695 6
-13.116456 28.292419 2.6216285 6
-13.096549 28.324562 3.2307665 2
-13.08285 28.359222 6.9006586 3
-13.094504 28.324326 7.5193553 3
-13.083026 28.351826 8.1651821 3
-13.165317 28.278347 0.51346743 2.333333
-13.224029 28.243959 1.0832338 4
-13.187798 28.236622 1.6835688 6
-13.108829 28.296612 1.7145052 5
-13.172069 28.268991 2.2879951 7
-13.150249 28.287155 2.8950295 7
-13.112807 28.329041 6.5654373 4
-13.094267 28.338129 7.1971903 3
-13.079414 28.347584 7.8402123 3
-13.129445 28.259155 0.37718722 4
-13.108948 28.297997 0.97694218 6
-13.182473 28.226503 0.94703197 5
-13.206291 28.24328 1.5344107 4
-13.119573 28.256735 2.1496873 6
-13.103825 28.300734 2.7578259 6
-13.076429 28.336256 6.4085345 2.5
-13.091516 28.31745 7.0216527 3
-13.07559 28.339268 7.6655073 4
-13.156549 28.267359 0.83721441 3
-13.225165 28.245453 1.4076073 4
-13.196423 28.245422 2.0093794 6
-13.180991 28.270769 2.6149602 7
-13.091571 28.350512 9.500392 3
-13.169436 28.265316 0.83901215 2.666667
-13.233151 28.25119 1.4115393 3
-13.193213 28.247276 2.0127664 6
-13.16872 28.27202 2.6189444 7
-13.239921 28.243587 0.50637245 1
-13.105159 28.301117 0.5512107 2
-13.118839 28.284611 1.1350107 6
-13.217268 28.263416 1.1059163 4
-13.136036 28.274559 1.7202338 5.5
-13.137455 28.293907 2.914067 7
-13.079518 28.344856 7.2154751 4
-13.130381 28.387867 9.8031101 2
-13.174456 28.256931 0.45767623 3.5
-13.144881 28.26539 1.0563644 5.5
-13.136458 28.272226 2.2439911 7
-13.115477 28.294945 2.849436 6
-13.096688 28.332283 7.1329179 2.5
-13.131089 28.338785 7.7587614 1
-13.117579 28.351896 8.4083786 2
-13.099056 28.354233 9.0569439 1
-13.276798 28.211718 0.46102709 0
-13.140311 28.265905 0.50545317 3
-13.206954 28.24929 1.0749989 3
-13.175132 28.25334 1.6747926 5
-13.113338 28.305468 2.2935495 5
-13.171557 28.268932 2.8678563 7
-13.083185 28.351112 6.5564079 3.5
-13.105169 28.325182 7.1662736 3
-13.085919 28.334566 7.8028321 3
-13.070205 28.343998 8.4511366 4
-13.166815 28.260008 0.46623608 3
-13.10582 28.310722 1.0807756 5
-13.239115 28.250261 1.0357603 3.5
-13.206768 28.248745 1.6354686 4.5
-13.136572 28.279249 2.2527554 7
-13.119066 28.305046 2.8586333 6
-13.074406 28.33737 6.526515 4
-13.164118 28.37636 7.7769408 0
-13.138557 28.361071 8.4192505 1
-13.152033 28.256123 0.54540485 3
-13.132738 28.271244 1.144664 5
-13.141214 28.284346 2.333667 6
-13.121614 28.295811 2.9390314 6
-13.105384 28.3237 6.6121383 5
-13.095324 28.328003 7.2409329 3
-13.090114 28.350126 7.8827314 3
-13.076406 28.347809 8.5298033 3
-13.285188 28.231035 0.42262626 0
-13.099988 28.295807 0.48353463 3
-13.1783 28.234972 0.45255369 4
-13.161966 28.258331 1.0519378 3.666667
-13.2347 28.2416 1.6226017 3
-13.122572 28.28919 2.2558267 7
-13.102535 28.302179 2.8610709 6
-13.071491 28.314821 6.5280485 4
-13.120756 28.342672 9.7354784 2
-13.091721 28.336729 0.3533996 1
