# .PCD v0.7 - Point Cloud Data file format
VERSION 0.7
FIELDS x y z intensity
SIZE 4 4 4 4
TYPE F F F F
COUNT 1 1 1 1
WIDTH 1253
HEIGHT 1
VIEWPOINT 0 0 0 1 0 0 0
POINTS 1253
DATA ascii
-24.28882 -1.5326221 -0.49484548 24
-24.238888 -1.3854581 -0.14978001 31
-24.316544 -1.5741795 -0.47533613 21
-24.302216 -1.4905226 -0.13212079 27
-24.374325 -1.5712495 -0.40282643 19
-24.457457 -1.2007606 -0.29667869 18
-24.463831 -1.5231502 -0.46909469 23
-24.536793 -1.5545247 -0.48534736 17
-24.46685 -1.4166827 -0.15727636 30
-24.316978 -1.4897152 -0.38069576 25
-24.600935 -1.1701556 -0.49736094 12
-24.321819 -1.5066168 -0.47831255 24
-24.266752 -1.377831 -0.15716498 28
-24.355965 -1.5232112 -0.47442743 24
-24.274506 -1.3991445 -0.15350476 28
-24.541317 -1.6396712 -0.35089234 17
-24.481724 -1.2362336 -0.33471105 20
-24.524185 -1.3795898 -0.4121412 30
-24.483671 -1.2379311 -0.37107182 14
-24.512989 -1.6302743 -0.37468439 17
-24.300488 -1.4693203 -0.51200771 25
-24.354946 -1.6352428 -0.20684431 12
-24.240871 -1.560565 -0.32346216 19
-24.391758 -1.2391968 -0.29609695 28
-24.395744 -1.5871742 -0.47659615 20
-24.308811 -1.4128726 -0.18863955 30
-24.516096 -1.5390558 -0.48133326 21
-24.561157 -1.6208615 -0.18388845 12
-24.431664 -1.5689967 -0.49595988 19
-24.42627 -1.2482742 -0.22035074 29
-24.432903 -1.6081672 -0.20614493 20
-24.470947 -1.6435635 -0.26960415 16
-24.42844 -1.1830244 -0.28813261 24
-24.315277 -1.6366012 -0.30473515 21
-24.411135 -1.533126 -0.47476307 27
-24.469879 -1.6260362 -0.19790831 18
-24.440189 -1.2268527 -0.21022579 25
-24.400173 -1.2926254 -0.52947903 22
-24.4471 -1.5880058 -0.52257836 19
-24.471725 -1.2377347 -0.26081479 16
-24.45046 -1.6278841 -0.24797976 22
-24.581942 -1.2495461 -0.45986959 20
-24.612213 -1.5873902 -0.43862864 22
-24.59207 -1.6153855 -0.16753599 11
-24.426399 -1.2774923 -0.44460115 20
-24.479786 -1.6128809 -0.43183562 20
-24.437082 -1.2656471 -0.1814582 27
-24.466087 -1.229688 -0.41472173 12
-24.482403 -1.6062515 -0.40120208 22
-24.421017 -1.5918882 -0.13832033 25
-24.315592 -1.6100104 -0.40487367 21
-24.249434 -1.5915802 -0.14568549 15
-24.360779 -1.480473 -0.47727588 20
-24.395584 -1.1979462 -0.23408762 25
-24.374989 -1.6061482 -0.21863392 21
-24.567341 -1.6785401 -0.45580781 12
-24.494444 -1.2229831 -0.46100414 9
-24.49596 -1.3231174 -0.51120234 30
-24.591324 -1.6372848 -0.49771181 21
-24.522383 -1.3093641 -0.26583484 28
-24.522011 -1.6182582 -0.24753574 26
-24.572468 -1.6553121 -0.36614519 14
-24.476809 -1.2556555 -0.3729592 19
-24.451208 -1.5962589 -0.11759144 28
-24.449343 -1.6338814 -0.43522206 14
-24.340378 -1.2853584 -0.43359366 27
-24.391605 -1.2414854 -0.19579521 20
-24.326073 -1.5805618 -0.18973222 24
-24.389059 -1.6403531 -0.43448019 18
-24.307838 -1.2573204 -0.45081222 22
-24.271717 -1.3273566 -0.20746018 29
-24.315479 -1.6224079 -0.19279005 17
-24.492199 -1.6763344 -0.35038394 20
-24.38113 -1.2115014 -0.37370449 20
-24.401939 -1.2444856 -0.38760343 15
-24.428444 -1.6165206 -0.39522722 20
-24.389194 -1.2479813 -0.15693989 23
-24.399815 -1.6179183 -0.16319242 22
-24.473415 -1.2898558 -0.5121547 19
-24.468674 -1.569548 -0.50343406 20
-24.526773 -1.2021527 -0.29039827 27
-24.545063 -1.6430081 -0.2776958 23
-24.555828 -1.1864408 -0.29711813 22
-24.619829 -1.6219975 -0.28267437 20
-24.517162 -1.4094361 -0.063872278 17
-24.497766 -1.6960288 -0.35418087 10
-24.360802 -1.222728 -0.36020857 26
-24.349438 -1.2940731 -0.1398434 15
-24.66354 -1.2212274 -0.45554891 10
-24.375784 -1.5604267 -0.42962542 21
-24.43251 -1.1761228 -0.22656539 21
-24.390343 -1.5936204 -0.21560827 20
-24.387234 -1.2548367 -0.44539762 16
-24.340096 -1.5542078 -0.43980467 22
-24.378986 -1.2530282 -0.23451626 27
-24.412708 -1.6296924 -0.23261809 22
-24.461016 -1.5961428 -0.37413365 20
-24.432907 -1.260159 -0.37412566 26
-24.440718 -1.2591333 -0.16881132 28
-24.416973 -1.5926628 -0.16567379 24
-24.527878 -1.6351479 -0.49527842 17
-24.439651 -1.2698812 -0.50545484 18
-24.507301 -1.1890984 -0.30974382 16
-24.479664 -1.6236331 -0.28931123 21
-24.416487 -1.4475116 -0.39303625 27
-24.532528 -1.6224893 -0.1965366 22
-24.508463 -1.1563746 -0.21130198 21
-24.505762 -1.6535785 -0.36354092 20
-24.421497 -1.229968 -0.36947826 21
-24.396976 -1.2944489 -0.17228219 29
-24.376053 -1.5729488 -0.16342178 32
-24.442299 -1.259891 -0.39637247 28
-24.524532 -1.6397223 -0.39005491 19
-24.489391 -1.2195565 -0.21020803 18
-24.487991 -1.6320581 -0.19707522 22
-24.65807 -1.2499177 -0.59650993 12
-24.428831 -1.5533315 -0.56659055 23
-24.57468 -1.6861795 -0.38518941 16
-24.484356 -1.2102907 -0.39605033 27
-24.455746 -1.3048222 -0.20321041 17
-24.457413 -1.5403746 -0.19490409 16
-24.6444 -1.2597955 -0.43089926 15
-24.402752 -1.5917288 -0.39480507 21
-24.419357 -1.1847016 -0.22978604 15
-24.459652 -1.6495655 -0.21236956 23
-24.371046 -1.4736563 -0.030914551 17
-24.675037 -1.2459874 -0.50473589 13
-24.774908 -1.6446522 -0.50846559 11
-24.541077 -1.6673284 -0.30565351 22
-24.469513 -1.2136272 -0.30639285 26
-24.528896 -1.275842 -0.12835211 14
-24.442011 -1.5969706 -0.11979884 23
-24.745119 -1.6352847 -0.44390562 10
-24.406435 -1.3114344 -0.4075065 26
-24.551567 -1.6646578 -0.24871102 22
-24.487274 -1.1877025 -0.23549047 16
-24.467714 -1.286284 -0.059259381 15
-24.444942 -1.6010029 -0.063543051 27
-24.416677 -1.6384237 -0.39757922 21
-24.348858 -1.2332083 -0.38134995 19
-24.393286 -1.641798 -0.22236064 21
-24.357292 -1.2379498 -0.20944944 25
-24.187479 -1.5127131 -0.31303003 21
-24.339207 -1.2463194 -0.14784417 13
-24.301163 -1.609683 -0.15632531 23
-24.304932 -1.5558994 -0.57403481 24
-24.337425 -1.2241582 -0.42215961 26
-24.468 -1.7032371 -0.41682911 12
-24.345615 -1.2468827 -0.25708109 17
-24.306156 -1.6023701 -0.24298692 27
-24.404646 -1.5410349 -0.44532514 26
-24.460606 -1.2103348 -0.22059494 18.5
-24.492609 -1.6478434 -0.20707184 19.5
-24.541487 -1.6111704 -0.51091814 18
-24.420496 -1.2998317 -0.51564789 29
-24.506302 -1.1771544 -0.37199894 24
-24.581966 -1.6605306 -0.35284802 15
-24.444342 -1.2839592 -0.20501789 19
-24.458485 -1.50867 -0.19430408 22
-24.692032 -1.5565922 -0.37395406 19
-24.730694 -1.6018615 -0.21922833 22
-24.656103 -1.1877279 -0.2403838 26
-24.639431 -1.5627122 -0.059957441 26
-24.609978 -1.6833006 -0.37007111 19
-24.490726 -1.2490329 -0.36131322 29
-24.491077 -1.2488945 -0.21100289 24
-24.507492 -1.6264571 -0.21049953 22
-24.410942 -1.2605215 -0.43481514 15
-24.468346 -1.6302086 -0.43498281 19
-24.509384 -1.6813335 -0.29016981 21
-24.441105 -1.178447 -0.29197523 11
-24.400612 -1.2838831 -0.14084074 16
-24.385492 -1.5985451 -0.13515159 26
-24.321964 -1.6777757 -0.35818419 21
-24.468182 -1.6621938 -0.3392778 18
-24.354473 -1.260367 -0.33611339 27
-24.405848 -1.2545571 -0.13241792 16
-24.370398 -1.631771 -0.12138331 20
-24.758421 -1.6390504 -0.5614773 10
-24.356188 -1.3005991 -0.52799392 25
-24.52231 -1.6832745 -0.39530739 21
-24.413986 -1.2190549 -0.33344087 20
-24.422474 -1.6291871 -0.25207296 23
-24.774227 -1.6179531 -0.46944439 32
-24.611147 -1.1671259 -0.47960901 12
-24.539942 -1.251078 -0.20556724 22
-24.640785 -1.5073618 -0.19741404 10
-24.64341 -1.5861217 -0.32510471 22
-24.485075 -1.241993 -0.37773681 19
-24.567141 -1.6078271 -0.37374878 21
-24.520411 -1.1898777 -0.2556873 27
-24.598362 -1.6490048 -0.24650168 23
-24.558365 -1.2066226 -0.13026428 12
-24.506844 -1.5988518 -0.11095959 24
-24.645184 -1.6257865 -0.52728534 12
-24.454403 -1.2236766 -0.39145747 17
-24.554249 -1.6683637 -0.38783094 18
-24.471807 -1.1745814 -0.2705836 17
-24.459305 -1.2840374 -0.1418983 12
-24.515665 -1.6646721 -0.25866327 18
-24.417137 -1.5736572 -0.12918952 22
-24.323774 -1.2705576 -0.37808698 20
-24.386837 -1.6352996 -0.36912495 25
-24.339947 -1.243428 -0.26091826 27
-24.345678 -1.2603004 -0.14048302 19
-24.325247 -1.626169 -0.12229955 27
-24.442059 -1.6942139 -0.25146985 22
-24.436661 -1.2058166 -0.28606075 24
-24.503878 -1.6449047 -0.34631586 20.5
-24.361704 -1.2962162 -0.39131051 29
-24.419588 -1.227891 -0.16744715 24
-24.432039 -1.3516614 -0.05099434 8
-24.454601 -1.6438009 -0.16529834 20
-24.486477 -1.1905565 -0.42764911 19
-24.539165 -1.6559141 -0.47333774 21.5
-24.427406 -1.2594407 -0.53026187 25
-24.479326 -1.2781203 -0.25537196 15
-24.48332 -1.6315256 -0.29950783 24
-24.695631 -1.6450231 -0.29584843 21
-24.621756 -1.1571357 -0.31901908 32
-24.592733 -1.1348736 -0.20774943 16
-24.617546 -1.2245346 -0.095577717 11
-24.63579 -1.5353327 -0.077332437 8
-24.579086 -1.5828942 -0.1770919 24
-24.503942 -1.6463716 -0.42604211 21
-24.403379 -1.2756901 -0.42218003 24
-24.556164 -1.6981649 -0.32565102 23
-24.459808 -1.2098525 -0.27455345 18
-24.48856 -1.6595013 -0.21283826 23
-24.518705 -1.2773836 -0.1214976 9
-24.452835 -1.5833759 -0.10684142 12
-24.39156 -1.2782528 -0.358913 28
-24.509073 -1.6319485 -0.36032432 21
-24.557501 -1.6798885 -0.26297075 23
-24.452549 -1.2027227 -0.22011995 22.5
-24.481827 -1.6417905 -0.15354204 24
-24.512718 -1.2553031 -0.073325813 11
-24.438808 -1.5856779 -0.051227748 18
-24.512093 -1.7016447 -0.33968759 23
-24.370655 -1.2460572 -0.37984556 21.5
-24.403101 -1.6197616 -0.42356348 24
-24.377497 -1.2517748 -0.18721235 16.5
-24.393726 -1.6413373 -0.17948854 27
-24.902008 -1.6195328 -0.44438273 11
-24.638966 -1.6652056 -0.30323541 15
-24.479593 -1.2375522 -0.32243657 26
-24.530066 -1.1676996 -0.18968642 22
-24.550121 -1.6280401 -0.14931065 24.5
-24.436239 -1.3305106 -0.086319029 27
-24.682402 -1.6292838 -0.45572412 17
-24.563808 -1.2516844 -0.44007832 27
-24.617069 -1.207828 -0.26962763 18.333334
-24.692932 -1.6598415 -0.3210941 24.5
-24.573112 -1.6006727 -0.17161793 31
-24.792591 -1.6289949 -0.49487454 13
-24.586905 -1.672995 -0.36606741 18
-24.470093 -1.2558382 -0.38010377 22.5
-24.565706 -1.2284126 -0.17881781 10
-24.560553 -1.6702465 -0.23136014 24
-24.526667 -1.1833971 -0.25907785 20
-24.624371 -1.2863208 -0.10102051 10
-24.559856 -1.6036212 -0.10000688 10
-24.444752 -1.6535795 -0.34443825 17.666666
-24.39876 -1.1709352 -0.2483837 13
-24.340969 -1.2198454 -0.36285859 25.5
-24.49214 -1.2830633 -0.096677661 12
-24.513983 -1.4160075 -0.10126919 9
-24.42281 -1.2296549 -0.17009598 11
-24.362293 -1.6168668 -0.16651696 17
-24.348909 -1.6462026 -0.49500909 22
-24.419012 -1.699291 -0.38917777 21
-24.323223 -1.2151647 -0.33605662 16.5
-24.343119 -1.661449 -0.29765478 26
-24.361134 -1.2815869 -0.22378209 11
-24.289608 -1.6366806 -0.21263877 17
-24.599693 -1.6263051 -0.53344822 16
-24.523191 -1.2456262 -0.53610969 15
-24.334421 -1.2605217 -0.41399276 25
-24.467112 -1.6894319 -0.30678487 23
-24.393902 -1.2207763 -0.27774864 17.333334
-24.384159 -1.6441748 -0.18101633 21
-24.490528 -1.2834803 -0.14027578 9
-24.521627 -1.5785962 -0.13172477 12
-24.611229 -1.2411808 -0.59702313 14
-24.676342 -1.6289359 -0.59281719 17
-24.435713 -1.2260222 -0.41010332 23.333334
-24.482071 -1.6580414 -0.39972019 24
-24.515491 -1.2578647 -0.24504948 12.5
-24.486925 -1.6214271 -0.22450852 18.5
-24.613127 -1.6624317 -0.41368121 26
-24.479267 -1.2327008 -0.4472903 29
-24.529587 -1.1908979 -0.29256165 18
-24.524895 -1.6197708 -0.228894 25
-24.726131 -1.5308964 -0.16809982 12
-24.627831 -1.2615476 -0.16914016 11
-24.768822 -1.6322213 -0.5161429 13
-24.627327 -1.2190403 -0.51308328 15
-24.583868 -1.6763585 -0.36047012 22
-24.460211 -1.2256615 -0.36726576 22.5
-24.511909 -1.2084564 -0.21835542 15
-24.51425 -1.6282876 -0.18665189 18.333334
-24.658861 -1.4334476 -0.098431349 11
-24.571732 -1.2959305 -0.09349674 14
-24.630133 -1.2052827 -0.56157166 16
-24.528469 -1.7047567 -0.35893053 21
-24.429155 -1.2123835 -0.37943572 18
-24.492371 -1.6666555 -0.38431883 18
-24.604866 -1.4417801 -0.14783543 11
-24.457924 -1.2780058 -0.19580603 12.333333
-24.435392 -1.6251915 -0.19269055 20
-24.376892 -1.6532358 -0.41362149 23
-24.440414 -1.6916429 -0.36680591 27
-24.368267 -1.6650336 -0.26323408 13
-24.401213 -1.2920754 -0.11435986 12
-24.488325 -1.4210953 -0.11423939 12
-24.306192 -1.2436368 -0.18867934 13.5
-24.361401 -1.6046507 -0.15381688 13
-24.852055 -1.6473668 -0.53023934 19
-24.697792 -1.1556571 -0.53884935 16
-24.436417 -1.2138274 -0.33591521 16.666666
-24.520487 -1.6759042 -0.25502324 14
-24.564785 -1.6985759 -0.34635019 22
-24.428898 -1.2431411 -0.22420025 11
-24.534126 -1.2945274 -0.13827586 8
-24.5459 -1.6078706 -0.16191232 13
-24.391949 -1.3060935 -0.15663177 12
-24.711321 -1.1532698 -0.51234049 15
-24.579124 -1.6876121 -0.38083988 18
-24.489288 -1.2037699 -0.29877132 12.333333
-24.573599 -1.6924124 -0.27703834 15
-24.463087 -1.2582941 -0.18331176 7
-24.506092 -1.6519179 -0.1641168 14.5
-24.565697 -1.3083243 -0.10351622 7
-24.666161 -1.4777136 -0.10438782 11
-24.629457 -1.6104219 -0.1287753 9
-24.463717 -1.3066072 -0.1281783 5
-24.42683 -1.1807578 -0.31613839 9
-24.477192 -1.6942129 -0.30627561 15
-24.453495 -1.2831554 -0.15996557 6.333333
-24.564758 -1.3941555 -0.12147534 12
-24.510229 -1.6269175 -0.18490106 12.25
-24.384062 -1.2253122 -0.24566984 7
-24.495388 -1.1533655 -0.2715559 8
-24.444197 -1.2100316 -0.19546235 6
-24.554596 -1.6374568 -0.1713804 9
-24.500525 -1.2908173 -0.085404873 4
-24.61013 -1.3951472 -0.075464956 12
-24.601078 -1.5870559 -0.10595435 11.5
-24.416948 -1.262279 -0.13139677 5
-24.480806 -1.3018019 -0.15860498 3
-24.617779 -1.4542469 -0.1511842 10
-24.579931 -1.6157699 -0.19338173 10.666667
-24.408049 -1.2603562 -0.22565401 5
-24.502113 -1.3623921 -0.041931029 11
-24.546051 -1.5176936 -0.06695509 11
-24.343132 -1.2688701 -0.14248633 4.5
-24.386059 -1.322741 -0.0683887 3.5
-24.492834 -1.63225 -0.10488462 12.333333
-24.676998 -1.6102664 -0.17630953 11.5
-24.493835 -1.227627 -0.18863976 5
-24.612379 -1.6538445 -0.22938257 11
-24.620964 -1.3034824 -0.081768326 8
-24.705393 -1.4769125 -0.10229707 13
-24.515217 -1.2824649 -0.11513144 3.666667
-24.666891 -1.5875831 -0.12230068 11
-24.879177 -1.5445811 -0.30865476 12
-24.625767 -1.2313445 -0.2949762 8.5
-24.855066 -1.559674 -0.32731268 13
-24.865791 -1.3386407 -0.25219116 11
-24.895277 -1.5004271 -0.27581999 10.5
-24.719959 -1.2318037 -0.27003977 3.5
-24.754805 -1.5402098 -0.47337854 2
-24.704414 -1.4817352 -0.24040043 2
-24.366179 -1.531868 -0.18438929 25
-24.454582 -1.5579185 -0.30203456 31
-24.422077 -1.5188961 -0.14998928 25
-24.517387 -1.4885197 -0.62546211 14
-24.430088 -1.5781174 -0.18296215 9
-24.588066 -1.6265507 -0.09212029 21
-24.552563 -1.6189785 -0.25037694 23
-24.435238 -1.5876026 -0.18902807 24
-24.521967 -1.396245 -0.30673891 14
-24.40073 -1.4318409 -0.13145526 20
-24.559549 -1.6718512 -0.068315953 18
-24.500519 -1.5290298 -0.16098207 18
-24.746517 -1.3976898 -0.54042679 24
-24.659801 -1.5094147 -0.44346672 11
-24.526739 -1.2394657 -0.17934281 21
-24.519094 -1.5201106 -0.43463129 17
-24.533319 -1.67909 -0.41006312 19
-24.492294 -1.621521 -0.49421829 19
-24.431576 -1.4748397 -0.27914834 30
-24.419657 -1.4479747 -0.14936697 32
-24.7036 -1.5090592 -0.44016966 22
-24.614597 -1.6869204 -0.33350474 21
-24.574409 -1.5437839 -0.29211342 22
-24.460075 -1.4094331 -0.18570827 27
-24.520691 -1.2748549 -0.15707223 31
-24.582188 -1.4219562 -0.54468769 21
-24.522255 -1.2373391 -0.36708063 3
-24.363176 -1.4505067 -0.12751342 28
-24.357746 -1.4362011 -0.068212233 23
-24.354979 -1.3775606 -0.078057677 23
-24.345398 -1.5497307 -0.28743458 23
-24.350597 -1.396045 0.01004791 20
-24.348301 -1.3794498 -0.27202791 22
-24.387087 -1.307054 -0.33949861 18
-24.312347 -1.4285113 -0.25020373 22
-24.639715 -1.2165418 -0.28256673 14
-24.748142 -1.7226129 -0.27948874 7
-24.536711 -1.6395584 -0.30758059 17
-24.428885 -1.4475496 -0.23889525 25
-24.443499 -1.5808191 -0.4117232 18
-24.400005 -1.3664777 -0.02906424 28
-24.34 -1.4740133 -0.35060367 18
-24.284021 -1.3900155 0.02563134 27
-24.363045 -1.5725915 -0.27741536 21
-24.345638 -1.5345243 -0.094079763 30
-24.526283 -1.6215725 -0.081827544 18
-24.417377 -1.2975953 -0.21107191 25
-24.465763 -1.5724477 -0.32679641 26
-24.668501 -1.6586512 -0.36390877 16
-24.606323 -1.4604568 -0.02203466 23
-24.278336 -1.4007442 -0.3538678 26
-24.22501 -1.465379 -0.01675871 29
-24.519094 -1.3155077 -0.15978965 18
-24.558737 -1.3493152 -0.32124346 23
-24.580873 -1.6977303 -0.31216973 18
-24.423561 -1.4668969 -0.3375949 27
-24.411058 -1.4107916 -0.01610079 28
-24.410088 -1.6530224 -0.26626846 23
-24.366257 -1.5293067 0.042373449 29
-24.465944 -1.3354653 -0.2783457 20
-24.420647 -1.6617968 -0.28259933 18
-24.504536 -1.6994417 -0.15834603 19
-24.497227 -1.324217 -0.1575838 27
-24.359434 -1.2909213 -0.21413407 9
-24.460848 -1.2504725 -0.13716267 13
-24.633305 -1.2917776 -0.17055719 17
-24.373253 -1.4383026 -0.30305189 24
-24.429356 -1.3060551 -0.022817081 20
-24.444189 -1.6990402 -0.035352409 18
-24.389828 -1.2584572 -0.099358141 24
-24.391981 -1.245243 -0.18478863 23
-24.46575 -1.7194704 -0.19075005 17
-24.513094 -1.2779975 -0.1514498 24
-24.569981 -1.6874034 -0.25677025 9
-24.437304 -1.3204181 -0.24155939 28
-24.469307 -1.3291087 0.01468074 16
-24.477345 -1.6587893 -0.4103215 11
-24.346197 -1.3897493 -0.39871386 27
-24.474163 -1.7067546 -0.15915087 11
-24.420349 -1.2697965 -0.14787725 23
-24.379131 -1.5076182 -0.35573632 25
-24.541573 -1.2614543 -0.11715442 12
-24.493557 -1.6833079 -0.11518413 19
-24.471626 -1.6953726 -0.23805511 20
-24.422152 -1.2345335 -0.23040259 13
-24.325399 -1.3982239 0.0086613903 25
-24.439606 -1.3327227 -0.43108353 18
-24.427467 -1.6192055 -0.42841491 18
-24.445747 -1.250298 -0.20008573 25
-24.488358 -1.7018661 -0.19808468 19
-24.398586 -1.3434696 -0.33306393 30
-24.382231 -1.576681 -0.32321939 26
-24.462769 -1.2595699 -0.11271819 27
-24.491283 -1.6913373 -0.096325733 18
-24.376291 -1.5809131 -0.40636438 26
-24.418411 -1.2322426 -0.19899482 24
-24.476444 -1.6990414 -0.189264 20
-24.325787 -1.259726 -0.21128619 26
-24.411642 -1.7145376 -0.20912397 19
-24.242828 -1.401587 0.0077441898 25
-24.418442 -1.2496227 -0.28208917 18
-24.429026 -1.31831 -0.071102083 14
-24.377308 -1.6050532 -0.062671602 28
-24.53371 -1.2890964 -0.366768 26
-24.607601 -1.6495068 -0.35231769 21
-24.576988 -1.2468177 -0.16924763 22
-24.55003 -1.6356186 -0.14751673 22
-24.490616 -1.6806897 -0.29489195 17
-24.384003 -1.2927164 -0.29315066 28
-24.399609 -1.2904886 -0.098644607 25
-24.401236 -1.6353362 -0.09352982 22
-24.334499 -1.6506355 -0.40340239 11
-24.332317 -1.6813376 -0.21348006 15
-24.773582 -1.2795708 -0.49355012 12
-24.420914 -1.5933371 -0.45994681 20
-24.468224 -1.2349477 -0.28758508 25
-24.527124 -1.6931318 -0.28213352 21
-24.486973 -1.3290974 -0.10335273 11
-24.44104 -1.553103 -0.096797653 12
-24.685673 -1.690495 -0.36751783 17
-24.547508 -1.2747546 -0.38227308 27
-24.566441 -1.2650187 -0.2063936 26
-24.579132 -1.6402755 -0.18471074 18
-24.376011 -1.2584059 -0.33013785 12
-24.455952 -1.6572564 -0.32467616 13
-24.401661 -1.6473187 -0.1498763 21
-24.373854 -1.2229404 -0.16141218 25
-24.417313 -1.3393978 0.0076721301 8
-24.430229 -1.254401 -0.24162725 13
-24.512566 -1.7169012 -0.31967095 20
-24.34201 -1.6139157 -0.14647785 28
-24.44816 -1.2177082 -0.25464579 23
-24.530149 -1.7057955 -0.25617048 19
-24.417805 -1.6160862 -0.40768126 19
-24.429899 -1.3009093 -0.095061809 13
-24.401138 -1.638294 -0.089644939 21
-24.475018 -1.5646064 -0.36186534 22
-24.557842 -1.2137406 -0.22313392 23
-24.657085 -1.7075965 -0.22528088 14
-24.573109 -1.2663308 -0.071501017 15
-24.498272 -1.613783 -0.06170797 26
-24.644283 -1.2977053 -0.53181344 14
-24.674303 -1.7058352 -0.53428918 13
-24.459799 -1.7185376 -0.3639105 21
-24.387413 -1.2426112 -0.35874963 14
-24.345867 -1.2944599 -0.21046412 23
-24.384544 -1.6863801 -0.21201015 14
-24.579168 -1.2229353 -0.28590652 17
-24.501814 -1.3197654 -0.41787097 28
-24.555902 -1.618591 -0.4262571 19
-24.557663 -1.2739706 -0.14561436 17
-24.56892 -1.6693442 -0.1496546 17
-24.563564 -1.6881683 -0.33269322 13
-24.448803 -1.3001364 -0.32201785 28
-24.57638 -1.7110637 -0.19778943 20
-24.522442 -1.2638665 -0.12878495 18.5
-24.459499 -1.6543251 -0.054475252 24
-24.310572 -1.2912302 -0.41330296 11
-24.323839 -1.6549007 -0.41482645 21
-24.366947 -1.2691221 -0.16404176 14
-24.331823 -1.2235317 -0.28815353 14
-24.48023 -1.2112494 -0.23516315 23
-24.431229 -1.2749372 -0.3518638 19
-24.516102 -1.6678418 -0.36538839 17
-24.567097 -1.7144074 -0.2481221 17
-24.472132 -1.2774327 -0.11462277 14
-24.435148 -1.6416945 -0.11405468 25
-24.555506 -1.2076102 -0.31300715 19
-24.510151 -1.2699682 -0.42318782 14
-24.553358 -1.6426911 -0.42723486 22
-24.631704 -1.7079941 -0.31931272 19
-24.51264 -1.2695345 -0.19279519 26
-24.512379 -1.6374807 -0.19078282 23
-24.685184 -1.6757765 -0.49074754 10
-24.397129 -1.2594154 -0.32868555 24
-24.335262 -1.3329616 -0.4302052 29
-24.457748 -1.68495 -0.34814331 19
-24.453108 -1.2236236 -0.22588953 14
-24.357018 -1.3422368 -0.11300221 24
-24.41153 -1.6660278 -0.18036446 23.5
-24.789995 -1.6978436 -0.44953728 12
-24.361908 -1.3097634 -0.37748295 26
-24.43692 -1.220377 -0.18211001 20
-24.493736 -1.6990557 -0.24555212 18.5
-24.40027 -1.2560759 -0.28040546 26
-24.461563 -1.2944423 -0.082988381 13
-24.3825 -1.637701 -0.077332079 25
-24.576387 -1.2360849 -0.43671739 12
-24.65308 -1.6647159 -0.39639997 17.5
-24.577848 -1.1848143 -0.3419407 16
-24.658911 -1.2674336 -0.16031873 14
-24.567572 -1.2184333 -0.24520934 25
-24.584248 -1.6139808 -0.19590366 17.5
-24.414938 -1.2715281 -0.33704585 17
-24.458965 -1.213529 -0.21037906 16.5
-24.518116 -1.6970474 -0.21256626 18
-24.518751 -1.2670841 -0.082777858 14
-24.401733 -1.6304039 -0.062303539 27
-24.824297 -1.6866519 -0.50142145 14
-24.417774 -1.3010415 -0.4284637 28
-24.632044 -1.7019087 -0.37467933 14
-24.477608 -1.2237287 -0.31910384 20.5
-24.556665 -1.6932617 -0.27651983 22
-24.545542 -1.2184581 -0.20643556 12
-24.540234 -1.2900337 -0.12070549 15
-24.497629 -1.6330066 -0.14456975 16.5
-24.519526 -1.2598429 -0.45840806 25
-24.597813 -1.6274145 -0.47697216 21
-24.672937 -1.685854 -0.41484731 18
-24.58313 -1.2084948 -0.31896961 18.666666
-24.601173 -1.6531755 -0.28561437 19
-24.68438 -1.2704526 -0.18185151 12
-24.618973 -1.5848162 -0.17320979 11
-24.759594 -1.6899364 -0.44890821 16
-24.365395 -1.2924702 -0.35654598 28
-24.424438 -1.2350757 -0.23289746 20.666666
-24.48192 -1.6884098 -0.23673874 20.5
-24.606983 -1.5680292 -0.050508801 12
-24.515652 -1.2937758 -0.075839579 14
-24.391409 -1.6477408 -0.080617793 24
-24.656925 -1.2506015 -0.42383689 12
-24.743259 -1.7198209 -0.43258172 17
-24.482092 -1.7177292 -0.2600103 19.5
-24.363436 -1.2401595 -0.24551225 24
-24.466013 -1.3028102 -0.041843768 14
-24.478983 -1.6099811 -0.034609739 12
-24.415348 -1.2395644 -0.12953049 14
-24.373989 -1.6716688 -0.10735369 21.5
-24.716373 -1.2268773 -0.40392554 15
-24.721491 -1.6590254 -0.40071642 19
-24.446648 -1.239675 -0.26012462 28
-24.49641 -1.2020772 -0.15663069 18.333334
-24.545734 -1.6792834 -0.16523051 21.333334
-24.571892 -1.2674252 -0.026641309 14.5
-24.611563 -1.5841238 -0.0028721699 15
-24.442327 -1.6208155 -0.024534641 26
-24.848373 -1.68414 -0.43498373 17
-24.553816 -1.1829798 -0.2572099 13.5
-24.626986 -1.6908927 -0.27598965 17
-24.508514 -1.2275181 -0.31980824 17
-24.603533 -1.2572491 -0.089150853 13
-24.63443 -1.2911261 -0.045029279 14
-24.62355 -1.6195488 -0.11598629 14
-24.560806 -1.2068295 -0.15504068 12.5
-24.506548 -1.6173216 -0.08604902 16.5
-24.588762 -1.2241383 -0.61422169 14
-24.36426 -1.2688111 -0.47470072 12
-24.41584 -1.6924894 -0.48903003 13
-24.406977 -1.2504609 -0.32918778 7
-24.39337 -1.6901718 -0.29806408 13
-24.481565 -1.3183255 -0.21300027 7.5
-24.490974 -1.6169071 -0.21322551 11.5
-24.336889 -1.6661617 -0.237353 19
-24.664261 -1.708351 -0.31747019 13
-24.688627 -1.2965726 -0.1284765 2.666667
-24.744081 -1.5775384 -0.12959063 12
-24.608902 -1.2395155 -0.2152791 4.333333
-24.615417 -1.6617889 -0.19327962 10.333333
-24.61554 -1.1998317 -0.17583269 11.666667
-24.652472 -1.6672941 -0.14382094 12
-24.708347 -1.2688941 -0.047650281 4.8000002
-24.711031 -1.6075662 -0.03614521 11
-24.655853 -1.6391139 -0.077066183 9
-24.718628 -1.657608 -0.42829859 17
-24.426283 -1.560276 -0.40018386 33
-24.496571 -1.3313751 -0.66611987 4
-24.487156 -1.621685 -0.56767923 29
-24.495155 -1.6128731 -0.38159007 34
-24.490963 -1.5400491 -0.25901222 29
-24.465927 -1.4938116 -0.3920989 24
-24.453766 -1.6237431 -0.34480053 24
-24.46059 -1.5353236 -0.26282084 26
-24.44931 -1.4032154 -0.24404044 29
-24.378551 -1.4824824 -0.24253894 28
-24.5322 -1.5683825 -0.42621693 22
-24.500267 -1.5104508 -0.47021019 24
-24.383144 -1.3846717 -0.27418345 27
-24.38851 -1.3467383 -0.31215987 27
-24.410656 -1.3702643 -0.28480613 29
-24.46682 -1.2085527 -0.30691463 24
-24.434605 -1.474561 -0.58569801 22
-24.409637 -1.4542334 -0.17258789 27
-24.439791 -1.3638031 -0.48458299 26
-24.440264 -1.3801565 -0.54030144 22
-24.353613 -1.4441673 -0.36935544 28
-24.424458 -1.2927483 -0.50409949 28
-24.357872 -1.3261896 -0.42247427 26
-24.538673 -1.6002545 -0.49311265 6
-24.480291 -1.2701273 -0.53957486 19
-24.543289 -1.1802958 -0.47053635 0
-24.400904 -1.3408399 -0.27068868 28
-24.343578 -1.3816111 -0.29654843 26
-24.457584 -1.218057 -0.24417612 26
-24.466702 -1.3812438 -0.50417012 30
-24.596567 -1.2035832 -0.44076848 7
-24.477278 -1.173667 -0.38824159 8
-24.423424 -1.2721479 -0.48743871 27
-24.389515 -1.3245506 -0.16592166 30
-24.448835 -1.1877697 -0.31244129 27
-24.477261 -1.1641881 -0.39832169 7
-24.389551 -1.3251722 -0.46096829 29
-24.420759 -1.2501037 -0.47899517 18
-24.379576 -1.2650068 -0.22666056 31
-24.45166 -1.2391319 -0.47700357 13
-24.39027 -1.2862227 -0.13082492 22
-24.36191 -1.3344276 -0.16019399 24
-24.419121 -1.2013958 -0.44106898 15
-24.362494 -1.2616777 -0.17448968 23
-24.470272 -1.230756 -0.44721526 11
-24.530638 -1.204093 -0.47748485 6
-24.392277 -1.2567132 -0.17878452 21
-24.399103 -1.2493918 -0.17356342 22
-24.378906 -1.2952969 -0.13388489 22
-24.405392 -1.2093357 -0.33286253 31
-24.434153 -1.1714787 -0.35508847 19
-24.460777 -1.1511838 -0.24252465 20
-24.344728 -1.3085324 -0.18347144 31
-24.553152 -1.2042124 -0.47445211 7
-24.436958 -1.1780751 -0.22115189 29
-24.447317 -1.1733038 -0.29240146 27
-24.442408 -1.180028 -0.27290592 27
-24.394571 -1.2864704 -0.17852652 29
-24.372471 -1.3150853 -0.11160111 28
-24.425394 -1.2069812 -0.4689106 14
-24.377079 -1.3104304 -0.13737911 30
-24.346132 -1.3698206 -0.17465192 31
-24.434168 -1.1703644 -0.31438407 29
-24.385166 -1.2709837 -0.15733357 30
-24.391638 -1.2511909 -0.1307157 27
-24.342077 -1.3045868 -0.2437456 27
-24.339106 -1.609859 -0.25383547 21
-24.330854 -1.35013 -0.24645558 29
-24.352289 -1.618598 -0.25535098 20.333334
-24.293749 -1.3635957 -0.15171373 28.5
-24.293093 -1.477592 -0.15415108 29
-24.311369 -1.2709661 -0.55018878 19
-24.281677 -1.5363822 -0.55541492 23
-24.344563 -1.4429593 -0.52470517 23.25
-24.359648 -1.2459553 -0.37245223 27
-24.30603 -1.484019 -0.36870262 24.333334
-24.345245 -1.2789651 -0.43733403 24
-24.33548 -1.4943391 -0.43479416 24
-24.341806 -1.2894063 -0.18434401 28
-24.286039 -1.5523657 -0.1845531 25
-24.405628 -1.3217709 -0.11372971 26.5
-24.36964 -1.2684895 -0.40414762 28
-24.377295 -1.5740411 -0.40390563 19.5
-24.39773 -1.4085262 -0.36296284 24
-24.388262 -1.2815554 -0.45303705 21
-24.35095 -1.4703438 -0.44941774 24.666666
-24.500542 -1.1782769 -0.43667939 3
-24.341532 -1.4183207 -0.42853138 24
-24.417936 -1.2627368 -0.37935874 23.5
-24.355942 -1.4502351 -0.37444565 25
-24.397846 -1.257551 -0.32061771 27
-24.368582 -1.5112202 -0.3139711 22
-24.377462 -1.3749112 -0.19786385 26
-24.427626 -1.2510263 -0.28692347 24.5
-24.408298 -1.5943542 -0.28040761 18
-24.317684 -1.5117536 -0.28050971 28
-24.296234 -1.3717177 -0.44924226 24.666666
-24.325233 -1.2510417 -0.26642081 24
-24.267288 -1.4379984 -0.25822636 26
-24.236095 -1.3979292 -0.25939843 28
-24.254379 -1.4108506 -0.24585347 25
-24.363644 -1.6473498 -0.23713355 16
-24.256863 -1.4019204 -0.24770613 28.333334
-24.261389 -1.5540166 -0.24189623 26
-24.314943 -1.3314208 -0.37193969 26
-24.291582 -1.5197864 -0.36523643 22.5
-24.286007 -1.388694 -0.19374909 27.666666
-24.394665 -1.1948557 -0.31543219 16
-24.349276 -1.4198279 -0.30743349 22.5
-24.235601 -1.4504285 -0.30435961 25.5
-24.343699 -1.2784795 -0.38790414 20.666666
-24.338236 -1.5813622 -0.38498083 18
-24.245937 -1.4617277 -0.3842105 26
-24.320486 -1.3607433 -0.18169494 27.5
-24.60693 -1.1409165 -0.51109862 14.25
-24.636429 -1.6751102 -0.50986731 7
-24.433153 -1.3206751 -0.50616241 19
-24.400005 -1.4694157 -0.50478172 18
-24.406944 -1.3974227 -0.46505925 20.200001
-24.501122 -1.6438252 -0.46187577 18
-24.365517 -1.2878686 -0.37734556 27.5
-24.392693 -1.5874045 -0.3540343 16.5
-24.287125 -1.3944513 -0.36687446 27
-24.254536 -1.466413 -0.36029589 26
-24.324579 -1.3116109 -0.12393276 24
-24.297678 -1.420902 -0.11572687 27
-24.27162 -1.4091392 -0.4112142 22.5
-24.728687 -1.2205939 -0.58400422 16.5
-24.216173 -1.3746829 -0.56006867 23
-24.219498 -1.3486459 -0.1238784 24
-24.389154 -1.3352224 -0.23608065 27.25
-24.434639 -1.5896578 -0.23217273 18
-24.431602 -1.3320554 -0.45794684 21.5
-24.433865 -1.511544 -0.45991141 21
-24.305834 -1.3700448 -0.23801306 28.666666
-24.595509 -1.2636135 -0.52923048 16
-24.274195 -1.3853378 -0.51340866 24.666666
-24.237719 -1.4410974 -0.17656255 25.5
-24.390739 -1.2694675 -0.20381354 26
-24.395611 -1.6171588 -0.18730532 20
-24.32328 -1.5077801 -0.19120376 28.5
-24.360201 -1.4051025 -0.32155484 24
-24.515648 -1.3857975 -0.43429941 27.666666
-24.60083 -1.2544303 -0.44045991 14
-24.456493 -1.28758 -0.24886639 27.333334
-24.458925 -1.5914891 -0.23102732 22.5
-24.258188 -1.3791424 -0.54282725 15
-24.42207 -1.6256236 -0.53652155 12
-24.36599 -1.3335586 -0.17615649 30
-24.361416 -1.4671683 -0.16937324 29.5
-24.492544 -1.2859982 -0.54514694 18
-24.408583 -1.4474351 -0.53161108 23
-24.39481 -1.2887402 -0.17105842 22
-24.34693 -1.3521144 -0.16598606 28
-24.281185 -1.4583174 -0.2776683 23.799999
-24.328962 -1.4433883 -0.3692424 26.200001
-24.393412 -1.2090932 -0.3590219 24
-24.301483 -1.4112597 -0.3565588 27.799999
-24.352667 -1.2431254 -0.2578783 26
-24.260729 -1.4298145 -0.24704647 28.799999
-24.315331 -1.316393 -0.27894711 26.666666
-24.285049 -1.5261369 -0.26829088 22.333334
-24.349432 -1.2843299 -0.5093714 19.333334
-24.523708 -1.6126894 -0.49947438 17
-24.290964 -1.4383354 -0.49962172 23.5
-24.272575 -1.387531 -0.15030155 28
-24.290318 -1.5771787 -0.14098427 26
-24.66177 -1.2188148 -0.50776953 15
-24.301468 -1.4176979 -0.4836517 25.25
-24.304504 -1.366559 -0.13929611 26.333334
-24.332598 -1.3631898 -0.41064847 23.666666
-24.314613 -1.5055805 -0.40362072 27
-24.412825 -1.430445 -0.29488888 25.6
-24.300064 -1.4352444 -0.29168454 30
-24.529333 -1.2556624 -0.47976023 18.5
-24.471544 -1.483709 -0.4706127 23.666666
-24.671413 -1.1301961 -0.50767672 14.6
-24.516487 -1.463623 -0.48820409 23
-24.510975 -1.270496 -0.16426763 25.5
-24.487286 -1.5071642 -0.15399298 29
-24.480579 -1.6189619 -0.38261646 17
-24.406399 -1.2595501 -0.38961703 26
-24.334709 -1.373228 -0.38432759 26.666666
-24.823935 -1.6900873 -0.4928503 13
-24.329018 -1.3903646 -0.48150963 25.333334
-24.349127 -1.2661543 -0.16177015 22
-24.284239 -1.417604 -0.15648191 27
-24.598827 -1.6860459 -0.48343995 12
-24.413967 -1.2921895 -0.47890785 17
-24.375431 -1.4514685 -0.47588584 20.5
-24.364605 -1.2572372 -0.15715209 21
-24.322008 -1.5051968 -0.15367272 23.200001
-24.427361 -1.3187684 -0.33591333 27
-24.365191 -1.4571071 -0.33881292 25
-24.574429 -1.2979292 -0.41292578 28
-24.5564 -1.5127261 -0.41432321 26.666666
-24.43298 -1.5691069 -0.37126291 19
-24.398224 -1.3447485 -0.36852449 26.666666
-24.368721 -1.5094475 -0.36844414 25
-24.615917 -1.2659744 -0.52512372 13
-24.302317 -1.3326144 -0.51254737 24.5
-24.329151 -1.5533847 -0.51280367 21
-24.3554 -1.2788862 -0.20854329 20.5
-24.278469 -1.5206711 -0.20578085 30
-24.425968 -1.1871288 -0.29813948 21
-24.305738 -1.4057102 -0.29030064 28.200001
-24.41119 -1.6153089 -0.29052666 20
-24.31052 -1.3718585 -0.48162284 29
-24.321106 -1.3786223 -0.19015852 28.666666
-24.552141 -1.4763923 -0.48814595 23.75
-24.522715 -1.2558293 -0.21297468 28
-24.461672 -1.4599416 -0.19440462 31.4
-24.625038 -1.7021577 -0.50047278 11.333333
-24.35487 -1.1769514 -0.50723946 13.571428
-24.423759 -1.4655366 -0.49965525 19
-24.377266 -1.3230968 -0.21577525 31.5
-24.335087 -1.4745307 -0.20830584 29.25
-24.159779 -1.4615896 -0.54770452 12
-24.350784 -1.2982731 -0.28071767 28.333334
-24.3144 -1.5075797 -0.27048761 25.75
-24.181919 -1.4034865 -0.30845234 29.166666
-24.242386 -1.5819677 -0.30397567 19
-24.482759 -1.3287014 -0.48528036 20
-24.472282 -1.5863252 -0.47628358 12
-24.354698 -1.401521 -0.20132908 28
-24.39687 -1.5720835 -0.19710889 19
-24.72929 -1.2547743 -0.54558206 13
-24.377472 -1.4379669 -0.5240376 27.799999
-24.379265 -1.4047511 -0.2530725 29.833334
-24.393261 -1.5758601 -0.24805713 28
-24.544117 -1.3109787 -0.32019481 27.333334
-24.535154 -1.513985 -0.3063018 28.5
-24.511389 -1.3723345 -0.18178937 30
-24.373064 -1.3639543 -0.30648932 29.5
-24.387459 -1.5419463 -0.29879698 28.166668
-24.379875 -1.3539972 -0.27593672 28.233334
-24.408274 -1.5498905 -0.26974154 26.5
-24.362961 -1.379317 -0.14487374 29.5
-24.238337 -1.559283 -0.40402657 21
-24.19767 -1.3820591 -0.15552109 30
-24.231997 -1.5445459 -0.14775914 27
-24.34939 -1.3149719 -0.35563466 22.895832
-24.400188 -1.5783374 -0.34927604 18
-24.390596 -1.46664 -0.45252466 26
-24.425999 -1.4406834 -0.20385003 24.428572
-24.469799 -1.4765239 -0.50093472 27.166666
-24.485954 -1.4842556 -0.25430611 30.5
-24.456806 -1.4170837 -0.25731555 29
-24.411642 -1.3408766 -0.36658007 27.333334
-24.418411 -1.5376096 -0.36088723 22.5
-24.454872 -1.3125745 -0.1267373 24.25
-24.424776 -1.5077344 -0.11936659 32
-24.445444 -1.2455472 -0.4392859 8
-24.391731 -1.6072752 -0.31205013 20
-24.310223 -1.3575995 -0.31156757 28.666668
-24.308252 -1.5174438 -0.30974749 28
-24.245586 -1.3392457 -0.44333422 28.333334
-24.24943 -1.5280377 -0.43343163 23.75
-24.307083 -1.3003782 -0.21007015 22.666666
-24.272551 -1.5155525 -0.19728734 29.75
-24.33584 -1.2727455 -0.36774343 29.5
-24.359358 -1.5856465 -0.3495149 20.333334
-24.2516 -1.4147968 -0.35482043 27.25
-24.448727 -1.2822663 -0.13933522 11
-24.315275 -1.3751193 -0.1292575 22.666666
-24.349066 -1.2843566 -0.38525286 28
-24.309677 -1.4675177 -0.38602927 26.5
-24.356258 -1.2881825 -0.15630546 28
-24.312195 -1.4707334 -0.15746763 28.833334
-24.829439 -1.2567298 -0.53510725 12
-24.432251 -1.4136667 -0.39308324 28.416668
-24.411449 -1.6029518 -0.49388188 10
-24.360855 -1.4187073 -0.38734823 20.1875
-24.539383 -1.2254859 -0.29474288 28
-24.526209 -1.3789315 -0.1763379 20.933334
-24.463833 -1.3551672 -0.17463583 29
-24.44381 -1.6540785 -0.35253781 21
-24.290237 -1.3506043 -0.13612336 28.5
-24.31531 -1.4734478 -0.13352472 25
-24.359352 -1.4076535 -0.43187752 24.714285
-24.497898 -1.60379 -0.43661979 14
-24.359488 -1.3457034 -0.21959522 26
-24.277367 -1.4381368 -0.21375695 29.200001
-24.460754 -1.6345224 -0.44681811 15
-24.309063 -1.4033736 -0.4391433 28.714285
-24.305141 -1.4197638 -0.22961402 29.5
-24.367046 -1.425981 -0.3688907 25.375
-24.380791 -1.4248327 -0.16496652 30.875
-24.438648 -1.2835354 -0.40338886 28.833332
-24.391647 -1.4759867 -0.39259118 27.642857
-24.622477 -1.2353743 -0.41633749 11
-24.442059 -1.4395651 -0.3952871 24.25
-24.488567 -1.1921083 -0.20888633 26
-24.399675 -1.4115235 -0.19594109 27.700001
-24.212231 -1.3955315 -0.44503662 20.333332
-24.266024 -1.606238 -0.44365475 16.287878
-24.343906 -1.3982308 -0.16669145 30.6
-24.357533 -1.520188 -0.1639699 32
-24.432003 -1.2825747 -0.2999787 28.5
-24.417521 -1.530421 -0.29149899 24.5
-24.366814 -1.4133786 -0.29207209 29.9
-24.641901 -1.1558073 -0.59858251 11
-24.742001 -1.630023 -0.59012675 10
-24.444252 -1.4231756 -0.57246077 23.625
-24.401642 -1.4185137 -0.28967428 27.9
-24.502445 -1.6328703 -0.38226366 22
-24.377972 -1.4033604 -0.40078336 25.555555
-24.589106 -1.6305712 -0.40980339 12
-24.3867 -1.3359759 -0.12914073 22.333332
-24.404751 -1.6146759 -0.20994347 22
-24.304317 -1.4055851 -0.12080139 28.083332
-24.670696 -1.2130613 -0.50471759 11
-24.789858 -1.6784527 -0.50929397 15
-24.439053 -1.4347783 -0.48203844 24
-24.453901 -1.2460004 -0.30496824 29
-24.39315 -1.4392581 -0.20882666 27.755682
-24.708294 -1.2121801 -0.43294433 11.8
-24.590584 -1.6851248 -0.34210023 17.666666
-24.406609 -1.3562772 -0.32058743 27.125
-24.394855 -1.5252876 -0.32289413 23.85
-24.397444 -1.3869779 -0.057225849 30.6
-24.423624 -1.5377246 -0.06131598 31
-24.27618 -1.3417257 -0.37838081 28.666666
-24.287409 -1.5424799 -0.3846015 24.4
-24.286516 -1.3462913 -0.20787683 27.5
-24.283001 -1.5465091 -0.21291247 25.6
-24.360485 -1.6261506 -0.41487125 20.214287
-24.279804 -1.2720706 -0.31312642 29.333334
-24.244244 -1.4399527 -0.39958939 26.1
-24.273804 -1.2924845 -0.14521757 26
-24.229946 -1.4731015 -0.14792463 29.75
-24.58272 -1.6209885 -0.59886074 11
-24.299511 -1.4006307 -0.49640036 25.090908
-24.385693 -1.6411542 -0.41231287 23.333334
-24.265568 -1.4249088 -0.24629653 30.1
-24.45195 -1.295889 -0.45977801 20.833334
-24.643822 -1.7207366 -0.46359783 14.666667
-24.415539 -1.2404766 -0.21604747 26.5
-24.474869 -1.6213882 -0.28709745 23.333334
-24.343596 -1.3691182 -0.2053706 29.642857
-24.36129 -1.53688 -0.20034808 25.916668
-24.418392 -1.3282297 -0.435729 26.457142
-24.420261 -1.5158167 -0.42624328 25.814285
-24.420612 -1.3544273 -0.20001981 27.5
-24.438477 -1.4524618 -0.19603577 27
-24.638666 -1.2359285 -0.38983482 24.4
-24.619839 -1.4598832 -0.37281656 24
-24.608858 -1.2666324 -0.15424371 28.1
-24.578028 -1.4654763 -0.1384663 27.3125
-24.535704 -1.2306032 -0.44190174 22.583332
-24.502735 -1.5362062 -0.43689013 22.51984
-24.349764 -1.4530734 -0.34757602 29.5
-24.454145 -1.3038064 -0.20809013 26.333334
-24.414238 -1.4772646 -0.20440018 28.222221
-24.348015 -1.3229344 -0.35456809 28.696428
-24.245802 -1.5756534 -0.41173694 20.915344
-24.337729 -1.3640841 -0.13549349 28.666666
-24.349022 -1.4811877 -0.13452086 29.833334
-24.264137 -1.5458885 -0.50057387 21.857143
-24.191465 -1.4274647 -0.21067312 21.444445
-24.449718 -1.660432 -0.26722705 22
-24.309006 -1.342416 -0.26066965 28.325396
-24.312832 -1.5363436 -0.25677276 27.583334
-24.767719 -1.6899766 -0.56065059 14
-24.371731 -1.4679297 -0.52378631 24.916666
-24.433544 -1.2891914 -0.26388445 22.666666
-24.35326 -1.4892818 -0.31899986 25.987499
-24.280989 -1.4441017 -0.31409618 29.375
-24.750452 -1.5537821 -0.60558546 12
-24.551308 -1.3626797 -0.52761519 23.392857
-24.658569 -1.5822411 -0.45950925 21
-24.610222 -1.136593 -0.34904337 23
-24.527199 -1.3618908 -0.26323521 27.222221
-24.607306 -1.5626993 -0.32338858 22
-24.446079 -1.3940556 -0.23997337 29.547617
-24.471508 -1.628607 -0.29722458 21.75
-24.377138 -1.3727429 -0.29566705 25.229166
-24.361681 -1.6147093 -0.47358614 11.857142
-24.47979 -1.25737 -0.12137371 24
-24.4746 -1.5764898 -0.10893613 25
-24.383553 -1.4328332 -0.31523624 26.839287
-24.500793 -1.6445369 -0.32036147 22
-24.299475 -1.3296988 -0.37214935 23.333334
-24.345253 -1.6317521 -0.36411291 20.592592
-24.248127 -1.3299003 -0.306162 24.975
-24.247316 -1.5236669 -0.23802257 28.585714
-24.294212 -1.4875638 -0.49382156 13.333333
-24.455042 -1.2428522 -0.28863519 25
-24.38558 -1.4385623 -0.21804821 22.701681
-24.475967 -1.6367983 -0.63538158 14.636364
-24.379448 -1.1663156 -0.63911796 13.5
-24.438906 -1.446861 -0.63710272 15.714286
-24.574272 -1.2993708 -0.20609125 12
-24.511089 -1.5354323 -0.38011387 17.777779
-24.41151 -1.2946119 -0.41545209 28.028572
-24.366293 -1.4840146 -0.40363064 28.847979
-24.447025 -1.4470236 -0.49122632 13.866667
-24.179405 -1.3928237 -0.50165772 12.975
-24.817402 -1.5888605 -0.42781901 13
-24.497976 -1.3980198 -0.23390454 26.31422
-24.638737 -1.6072948 -0.29121119 23.5
-24.406704 -1.4254684 -0.27411139 29
-24.353043 -1.2399061 -0.46797928 21.241667
-24.382391 -1.5305543 -0.46380892 21.160713
-24.519936 -1.6800994 -0.32135722 23
-24.399441 -1.2996523 -0.21263191 24.1
-24.361263 -1.4885614 -0.20284626 27.893057
-24.36805 -1.2962981 -0.40477711 20.595238
-24.430603 -1.5567451 -0.40258998 20.323811
-24.168676 -1.4768811 -0.40842837 20.060387
-24.416866 -1.2733344 -0.16229457 23.933334
-24.422932 -1.5714443 -0.14997339 25.317459
-24.373121 -1.323343 -0.15482819 30
-24.338568 -1.4281425 -0.14570361 30.716667
-24.362238 -1.3798493 -0.52127767 17.190475
-24.481695 -1.6683086 -0.38556927 19
-24.296352 -1.4181597 -0.26838338 29.509968
-24.359867 -1.5995927 -0.27270252 25.866667
-24.453812 -1.3475313 -0.45857334 14.363636
-24.512045 -1.3063087 -0.18731141 21.382858
-24.522324 -1.5921276 -0.28480852 23.722221
-24.406775 -1.4169061 -0.22010785 29.466162
-24.459892 -1.566538 -0.091042519 33
-24.587915 -1.2312062 -0.49048138 21.404762
-24.491735 -1.5828582 -0.51047772 18.776329
-24.542395 -1.2936878 -0.2586388 27.651854
-24.528328 -1.5008613 -0.25462085 29.361441
-24.30747 -1.299818 -0.51706487 14.674167
-24.598206 -1.6747198 -0.32649356 19.875
-24.406513 -1.3823612 -0.28531384 27.851707
-24.421188 -1.560782 -0.29141802 25.205952
-24.546206 -1.5737106 -0.097546577 10
-24.460855 -1.4196545 -0.082914889 18.461538
-24.514091 -1.5375715 -0.092548132 11
-24.296852 -1.5834162 -0.52066332 16.926924
-24.325836 -1.3136976 -0.23735732 23.514935
-24.284674 -1.512861 -0.27436191 28.142708
-24.184078 -1.45479 -0.29601282 39
-24.402979 -1.6539463 -0.50664425 18.208334
-24.234119 -1.4647048 -0.43562207 24.877491
-24.246746 -1.467526 -0.20707604 29.90909
-24.298046 -1.4207236 -0.4718045 22.240479
-24.400021 -1.6842854 -0.48210406 19.364286
-24.318684 -1.4244182 -0.2162807 24.684959
-24.377605 -1.6335577 -0.25481188 26.494446
-24.209412 -1.4792843 -0.30142951 31.833334
-24.675674 -1.1919019 -0.57677841 13.3
-24.333151 -1.3696674 -0.48509341 24.089209
-24.413847 -1.6710536 -0.48942959 21.376612
-24.365114 -1.4216158 -0.24675977 28.739058
-24.42671 -1.5915626 -0.25004244 23.791666
-24.470943 -1.3232058 -0.50616187 23.761381
-24.555147 -1.6550994 -0.50392836 21.834375
-24.264698 -1.3523133 -0.51883429 22.047262
-24.493324 -1.3198857 -0.24236351 24.001263
-24.540667 -1.5626326 -0.23430836 25.448719
-24.398153 -1.4199426 -0.2497105 34.620876
-24.410114 -1.5209299 -0.27765042 30.75
-24.629509 -1.1884408 -0.51670247 16.25
-24.334843 -1.4041575 -0.44487566 22.84017
-24.426695 -1.6545557 -0.44927365 21.172768
-24.621634 -1.4038601 -0.094182134 12.8
-24.437502 -1.3775244 -0.15709746 26.593178
-24.448498 -1.5875444 -0.17557746 25.822222
-24.367414 -1.3520334 -0.44200456 23.566847
-24.174467 -1.4195608 -0.49989611 21.446806
-24.406586 -1.3789873 -0.20663738 24.240057
-24.407354 -1.6123459 -0.21757621 24.324074
-24.315027 -1.4407233 -0.2125324 34.723682
-24.323696 -1.5762968 -0.2609973 27
-24.542246 -1.6858697 -0.48987073 19.589287
-24.444237 -1.3955259 -0.10933882 14
-24.277752 -1.3308481 -0.14237165 21.294668
-24.255163 -1.4980869 -0.14472896 27.340218
-24.459066 -1.1642921 -0.43413079 19.147486
-24.490627 -1.636219 -0.41262305 21.676222
-24.326462 -1.2131861 -0.43719798 20.310606
-24.333815 -1.4735947 -0.40567827 22.161034
-24.444572 -1.2631865 -0.19953275 11.75
-24.517368 -1.5215452 -0.13820136 12.346153
-24.40424 -1.2825066 -0.21344912 19
-24.375463 -1.4717376 -0.16053545 24.861111
-24.860813 -1.678786 -0.50941199 15.179894
-24.446354 -1.2315952 -0.35992813 16.372183
-24.409586 -1.5348951 -0.32210279 21.502077
-24.453241 -1.3111391 -0.14854282 13
-24.492647 -1.4602895 -0.11338758 17.59202
-24.474344 -1.2352338 -0.28378147 8.8000002
-24.547379 -1.5706968 -0.22318393 13.066668
-24.323917 -1.3369861 -0.22863197 16.53141
-24.336601 -1.5229445 -0.196073 22.035278
-24.422571 -1.3212872 -0.12073106 14.767851
-24.46567 -1.4792862 -0.10276604 18.688114
-24.511017 -1.2700815 -0.21114051 7.3611112
-24.538244 -1.5319595 -0.17363405 12.693103
-24.37664 -1.3492713 -0.1755563 16.536425
-24.410458 -1.4705355 -0.16212738 18.160776
-24.480389 -1.1733756 -0.23830199 4
-24.572378 -1.4873163 -0.11201781 10.266666
-24.310444 -1.2824967 -0.14587355 11.25
-24.369146 -1.4725893 -0.068616033 16.364777
-24.541723 -1.1787231 -0.25831902 7.0555558
-24.454929 -1.4480443 -0.15993071 18.409807
-24.653624 -1.61906 -0.20055586 11.760715
-24.412376 -1.4793285 -0.14854753 30.031977
-24.553474 -1.4313703 -0.10067773 15.765399
-24.623053 -1.601124 -0.13633829 12
-24.411404 -1.4213507 -0.11059397 24.666666
-24.626328 -1.2385242 -0.2929047 10.333334
-24.719938 -1.4648052 -0.27219233 17.472815
-24.853102 -1.4160552 -0.2620208 13.691228
-24.677725 -1.2565122 -0.26165161 8.3055563
-24.745981 -1.3369157 -0.25269815 14.004784
-24.891884 -1.3619156 -0.44183415 1.5
-24.799555 -1.5173955 -0.28883284 25
-24.896503 -1.3344016 -0.25597256 26.75
-24.71221 -1.1924639 -0.4265784 1
-24.791897 -1.298203 -0.43528163 7
-24.805946 -1.4278088 -0.45286477 4.5
-24.817404 -1.3771019 -0.24612206 2.75
-24.833494 -1.4573298 -0.48895061 12
-24.924543 -1.3351278 -0.47972524 12.5
-24.717588 -1.5962124 -0.34629834 10
-24.852844 -1.4376011 -0.32947266 0
-24.737488 -1.5706806 -0.50848567 26
-24.611473 -1.623745 -0.52255547 1
-24.782921 -1.4041023 -0.17199856 5
-24.873814 -1.3587761 -0.31588423 3
-24.669979 -1.380497 -0.58764148 2
-24.865616 -1.3575878 -0.20272934 5
-24.864025 -1.4298325 -0.19205415 22.666666
-24.907497 -1.3313293 -0.5963403 6
-24.740757 -1.5335808 -0.52546918 17
-24.57235 -1.5696526 -0.54263294 11
-24.858463 -1.4888649 -0.16264379 25.5
-24.592285 -1.6217155 -0.60897279 25
-24.701096 -1.5184021 -0.60957336 26
-24.840687 -1.4696846 -0.24045092 33
-24.588428 -1.5907173 -0.28396511 21
-24.776058 -1.5654259 -0.23992562 30
-24.697971 -1.5803452 -0.30543292 23
-24.888273 -1.3883553 -0.22812235 13
-24.670464 -1.6162949 -0.3304435 26
-24.831181 -1.5489998 -0.27822459 31
-24.868872 -1.5211029 -0.5205251 28
-24.685524 -1.6092033 -0.4690575 22
-24.614536 -1.580925 -0.5749265 17
-24.846134 -1.4522629 -0.62621653 10
-24.81809 -1.5115051 -0.41505504 28
-24.827024 -1.470974 -0.6240533 8
-24.851414 -1.5290375 -0.43679422 29
-24.666895 -1.5868149 -0.29838973 21
-24.79743 -1.4808083 -0.63585144 5
-24.631117 -1.5128708 -0.40939975 17
-24.945864 -1.3632088 -0.31541944 24
-24.7432 -1.5006905 -0.63807225 17
-24.900164 -1.436306 -0.57916951 27
-24.901573 -1.4265366 -0.61088693 3
-24.434837 -1.6054764 -0.23084843 13
-24.860485 -1.5224266 -0.36726475 29
-24.599203 -1.594902 -0.24931979 21
-24.733191 -1.539814 -0.41484612 27
-24.669203 -1.535202 -0.52999592 16
-24.541544 -1.6029587 -0.29790545 23
-24.628056 -1.5210838 -0.13050371 12
-24.64996 -1.5374336 -0.56652331 8
-24.822788 -1.5044861 -0.51374698 20
-24.536825 -1.553833 -0.53219658 8
-24.714994 -1.5354614 -0.47962624 18
-24.697031 -1.4299622 -0.46319747 17
-24.889259 -1.4217873 -0.53650451 21
-24.765175 -1.5056648 -0.5756197 23
-24.641701 -1.6192513 -0.3830694 25
-24.869455 -1.4691963 -0.3268007 19
-24.611462 -1.6465034 -0.20133352 22
-24.704901 -1.6179962 -0.23816609 24
-24.66786 -1.6112556 -0.49705231 23
-24.604633 -1.6200371 -0.32123023 25
-24.775955 -1.579174 -0.27366668 29
-24.809658 -1.5394669 -0.46957767 27
-24.934263 -1.3673515 -0.42267358 20
-24.728848 -1.5240822 -0.60296869 22
-24.886635 -1.4460793 -0.55585241 26
-24.788715 -1.4809303 -0.53546941 24.5
-24.694487 -1.604496 -0.54732436 23
-24.834051 -1.4692993 -0.5139181 23
-24.629225 -1.6422615 -0.4592998 21.5
-24.688057 -1.6340752 -0.313802 25
-24.6203 -1.6037598 -0.44518447 22
-24.781593 -1.5327034 -0.40569568 27
-24.785467 -1.5689468 -0.48306996 27
-24.596546 -1.5536613 -0.19301134 22
-24.771168 -1.5205727 -0.14871746 24
-24.741083 -1.5893097 -0.42603129 26
-24.633476 -1.5624886 -0.22477287 17
-24.714499 -1.624733 -0.22893625 26
-24.502443 -1.5570297 -0.27440935 17
-24.8409 -1.4518471 -0.18835121 25
-24.668959 -1.5188446 -0.29151273 22.5
-24.682676 -1.6666069 -0.36199433 28
-24.463369 -1.5806541 -0.40690833 16
-24.825241 -1.5385361 -0.32229477 24
-24.781874 -1.5392342 -0.43898308 29
-24.467655 -1.6904793 -0.43387425 20
-24.65551 -1.6894798 -0.38919461 27
-24.785439 -1.5271797 -0.34845424 5
-24.49341 -1.5895004 -0.30506217 17
-24.690586 -1.6155128 -0.25872719 32
-24.69607 -1.4947281 -0.37263268 23
-24.859972 -1.4280205 -0.3322193 27
-24.454758 -1.5987549 -0.36168671 17
-24.668934 -1.6739388 -0.31700802 30
-24.805214 -1.5312424 -0.27742624 21
-24.561136 -1.633503 -0.28965509 25
-24.605656 -1.6718674 -0.26714253 20
-24.54845 -1.7165833 -0.22788304 22
