# .PCD v0.7 - Point Cloud Data file format
VERSION 0.7
FIELDS x y z intensity
SIZE 4 4 4 4
TYPE F F F F
COUNT 1 1 1 1
WIDTH 1390
HEIGHT 1
VIEWPOINT 0 0 0 1 0 0 0
POINTS 1390
DATA ascii
-11.4792 16.326632 0.83063543 2
-11.406052 16.405121 1.5513283 0
-11.463452 16.333988 1.3618511 4
-11.388465 16.368837 1.9024122 1
-11.433854 16.356993 2.2540247 9
-11.440371 16.348515 2.6101224 12.666667
-11.445436 16.387836 0.47734872 0
-11.468718 16.313154 0.46901825 3
-11.414834 16.38126 0.82823539 0
-11.478409 16.310453 0.81645989 2
-11.490543 16.301359 1.3436055 2
-11.408658 16.336401 1.5299867 1
-11.41134 16.327675 1.8831731 1.5
-11.438283 16.341461 2.2390177 20.666666
-11.454831 16.345602 2.596858 15.5
-11.386971 16.334785 2.9588034 2
-11.39402 16.307806 3.6817455 1
-11.482825 16.308178 0.093342707 3
-11.489495 16.302608 0.44311729 2
-11.473104 16.317879 0.79683572 2
-11.425397 16.342508 1.1513511 1
-11.43267 16.328621 1.67905 1.666667
-11.50423 16.334585 2.5676343 24.5
-11.508644 16.471045 -0.30189729 32
-11.497709 16.388935 0.044588331 1
-11.498961 16.378597 0.39424884 2
-11.524543 16.348837 0.74039161 1.5
-11.525652 16.338549 1.0873728 1
-11.480331 16.361713 1.6210201 1.75
-11.5195 16.329821 2.5022504 145.5
-11.409841 16.387142 2.5140715 3.5
-11.43793 16.358938 2.8661268 1.5
-11.412795 16.360409 3.2292304 1.5
-11.406311 16.334978 3.5859008 1
-11.472515 16.351244 -0.22427453 2
-11.509899 16.341055 0.1209781 2
-11.4493 16.352827 0.47674608 1.5
-11.462453 16.361572 0.82698202 0.5
-11.454948 16.341057 1.1733499 4
-11.522853 16.341129 1.6990732 2.9333329
-11.507003 16.3346 2.2317908 141
-11.534446 16.356123 2.5906808 47
-11.387898 16.348724 2.9490111 1.5
-11.522244 16.350599 -0.049327981 2
-11.516652 16.34972 0.3000176 2
-11.4148 16.427452 0.65939939 0
-11.477609 16.35491 0.6513617 2
-11.478412 16.363129 0.99852264 1.333333
-11.498275 16.428057 1.5318928 2.5
-11.418181 16.35465 2.0540621 14
-11.408862 16.345749 2.7607067 2
-11.493471 16.364822 -0.11718025 1.5
-11.479438 16.35676 0.2307218 2
-11.466303 16.361315 0.92884266 1
-11.486883 16.348415 1.273765 4.333333
-11.481993 16.326229 2.3278549 102.33334
-11.467402 16.363577 2.6870182 3
-11.387103 16.35598 2.6844432 2
-11.490388 16.347181 -0.1746311 3
-11.454795 16.382586 0.17349394 1
-11.510921 16.331736 0.51728565 1.333333
-11.469254 16.358219 0.86700869 1
-11.47821 16.348354 1.214805 5.666667
-11.393847 16.421907 1.566257 0
-11.414799 16.390347 2.0904112 0.75
-11.427008 16.35199 2.6168151 2.5
-11.400156 16.33831 2.9675503 2
-11.388374 16.351938 3.3255377 1.5
-11.403332 16.325794 4.0463552 1.5
-11.519264 16.357975 0.054106738 2
-11.47869 16.395596 0.4012644 1.333333
-11.483524 16.389353 0.74754477 1
-11.510409 16.360355 1.0942112 2
-11.492682 16.376017 1.443351 1.333333
-11.499374 16.372393 1.7898062 2.333333
-11.455463 16.370785 2.3150172 18
-11.395452 16.413395 2.4932909 1
-11.439654 16.360966 2.8434868 1
-11.455348 16.363958 3.1996057 1
-11.390946 16.379536 3.1971979 2
-11.393428 16.369345 3.5531745 2
-11.400915 16.366169 3.9163837 1
-11.501611 16.343838 -0.02323145 3
-11.477868 16.354942 0.32274354 1.5
-11.46289 16.378498 0.66961443 1.333333
-11.480213 16.3396 1.0156713 2
-11.460654 16.356361 1.3642247 2.333333
-11.493369 16.325464 2.2353852 46.700001
-11.411443 16.336571 3.4728057 1
-11.503983 16.343895 0.048747931 2
-11.464672 16.388708 0.39510104 1.333333
-11.465425 16.381992 0.74103868 1
-11.464211 16.372471 1.0880834 1.333333
-11.464848 16.365561 1.4356953 0.5
-11.453452 16.349306 1.4342945 3
-11.496791 16.395889 2.1359749 8
-11.394794 16.347891 2.83183 2
-11.40563 16.349499 3.186717 1
-11.412177 16.350868 3.5444927 1
-11.44548 16.37221 0.13418691 1
-11.439563 16.351706 0.4789865 2
-11.508582 16.330118 0.82406044 2
-11.429753 16.380066 0.82575387 1
-11.520877 16.335728 1.1720619 14
-11.428384 16.365993 1.1723454 1.5
-11.424725 16.348555 1.5188832 2
-11.408101 16.366858 1.8655813 1
-11.454327 16.360628 2.3935151 47.5
-11.390544 16.346354 3.2728391 1.5
-11.493005 16.313919 0.037230909 3
-11.471127 16.322573 0.38262701 1.5
-11.461122 16.348028 0.7291553 1.333333
-11.461966 16.33485 1.0755798 1.666667
-11.465485 16.325384 1.4226233 1.333333
-11.437949 16.32571 1.7674155 1.5
-11.468224 16.293346 2.2906628 101.1
-11.389733 16.326485 2.8198836 1.5
-11.400148 16.320559 3.1734786 1.5
-11.465874 16.356876 0.083050512 1
-11.486102 16.310461 0.42750266 3
-11.498319 16.30637 0.77354562 1.5
-11.429388 16.369514 0.77732074 1
-11.512812 16.305653 1.1176436 1.5
-11.423225 16.333429 1.6414012 4.666667
-11.501608 16.337679 2.1702342 133
-11.476312 16.327295 2.519599 12
-11.407015 16.313429 2.8679256 2
-11.470317 16.362753 0.21253426 1
-11.475763 16.34062 0.55767697 1.333333
-11.487781 16.327883 0.90031165 1.333333
-11.500035 16.352844 1.4246224 1.25
-11.510649 16.315157 1.4208592 2.25
-11.531444 16.344404 2.6530411 15
-11.385347 16.34936 2.6488309 1
-11.40164 16.341154 3.0052233 2
-11.405351 16.315079 3.3574719 2
-11.480214 16.312973 0.31833225 3
-11.438818 16.36142 0.32184273 1
-11.423671 16.36095 0.66830188 1
-11.439501 16.351244 1.0108366 2
-11.454818 16.323881 1.5300177 2
-11.462582 16.309254 2.0529468 4.333333
-11.466338 16.311255 2.4030766 101.33334
-11.396421 16.337698 2.7569826 1.5
-11.393293 16.31826 3.4674683 2
-11.493105 16.32675 -0.17900959 2
-11.460084 16.360735 0.16769859 1
-11.488389 16.320358 0.51108623 2
-11.437277 16.409266 0.51625383 0
-11.502728 16.314001 0.85634875 1.5
-11.421014 16.35844 0.86007631 1
-11.51819 16.309414 1.1995653 4
-11.426302 16.339048 1.20207 1
-11.421975 16.345697 1.7241356 1.5
-11.477086 16.335796 2.2495413 92
-11.473001 16.349949 2.6022038 12.75
-11.401538 16.32659 2.9492223 1.5
-11.394881 16.313726 3.6622226 2
-11.407516 16.309048 4.0255928 1
-11.485914 16.329721 -0.135399 2
-11.492273 16.316229 0.2086197 3
-11.514276 16.325031 0.55417073 1.333333
-11.465304 16.340092 0.9015497 1
-11.470647 16.324917 1.2441617 5.333333
-11.521904 16.381453 1.7717544 1.083333
-11.419363 16.34911 2.292752 2
-11.462075 16.327408 2.6424413 18.666666
-11.38548 16.330431 3.3504124 1
-11.484723 16.325737 0.070973568 2
-11.499926 16.329788 0.41509539 2
-11.50494 16.319033 0.76025456 1.333333
-11.513331 16.31325 1.1059158 3
-11.435852 16.363979 1.1085672 1.5
-11.523625 16.310253 1.449668 0
-11.437204 16.347763 1.451182 2
-11.465883 16.334763 1.9732289 4.75
-11.441469 16.358875 2.5010753 2.666667
-11.431116 16.319302 2.846822 2
-11.442069 16.316551 3.2007782 1
-11.40159 16.314074 4.2797713 1
-11.478741 16.3367 0.079132684 1.5
-11.466096 16.346531 0.59506923 1.333333
-11.467013 16.330013 0.93874848 1
-11.475044 16.323866 1.2842832 5.333333
-11.450776 16.325254 1.6304917 2
-11.46171 16.323492 2.4998193 52.458332
-11.383183 16.323668 3.0240941 2
-11.395085 16.316683 3.3768094 2
-11.467355 16.356445 -0.016076289 1
-11.472273 16.326574 0.32654753 3
-11.495626 16.323561 0.67064673 1
-11.482673 16.321928 1.01642 1.5
-11.47007 16.320881 1.3597851 4
-11.510015 16.340975 1.8833435 2.416667
-11.465646 16.31583 2.4060199 92
-11.394762 16.330379 2.7570915 1.5
-11.464004 16.360138 -0.054261051 1
-11.473555 16.333801 0.28698793 3
-11.473338 16.34782 0.63093841 1.5
-11.491987 16.33465 0.97406292 1.5
-11.480698 16.331877 1.3192492 4
-11.455582 16.342913 1.8368671 1.75
-11.522431 16.345812 2.1857066 48
-11.411954 16.344456 2.7105603 1.5
-11.425412 16.328909 3.4130731 1
-11.484362 16.31958 -0.02823017 2
-11.500221 16.310596 0.31245127 3
-11.470661 16.343679 0.65801549 1.333333
-11.479328 16.32349 0.99989831 1
-11.45208 16.315662 1.5126817 4.75
-11.399456 16.391176 1.3475183 0
-11.384386 16.328093 2.38061 1.5
-11.406559 16.321512 2.7284062 1.5
-11.397516 16.293716 3.4303839 1
-11.466423 16.350393 0.099591017 2
-11.453396 16.363035 0.60932732 1.333333
-11.461123 16.351511 1.1235514 5.666667
-11.426136 16.344006 1.4662287 1.5
-11.476923 16.344341 1.8108709 6
-11.481926 16.336462 2.1560552 97.666664
-11.464481 16.348583 2.5071268 11
-11.386833 16.346218 3.0289636 1.25
-11.486818 16.329041 0.016004531 2
-11.473108 16.35083 0.35660359 1.5
-11.440834 16.344307 0.6939854 1
-11.479666 16.314362 0.86297995 2.25
-11.41935 16.395882 1.3801553 0
-11.47862 16.321121 1.3763225 2
-11.507118 16.302818 1.7187161 3.25
-11.429067 16.357727 2.7594306 1.666667
-11.390761 16.33688 3.2804742 1.25
-11.460678 16.349504 0.044484161 1
-11.504662 16.345434 0.38279751 1
-11.474585 16.339083 0.72216153 1
-11.478588 16.321375 1.2279514 1.333333
-11.462601 16.295847 2.4234796 123.25
-11.429898 16.339014 2.7726231 1.5
-11.394486 16.327955 3.6470685 1
-11.483163 16.334873 0.00068634999 1
-11.468986 16.310448 0.67488021 2
-11.460633 16.294344 1.5169547 3
-11.474914 16.311699 2.7167659 1
-11.475351 16.316078 0.50641257 2.5
-11.500793 16.307768 1.0097343 2
-11.415284 16.399702 1.3623222 0
-11.52212 16.336678 1.6936918 4.333333
-11.389925 16.366644 2.0408332 1
-11.455164 16.311028 3.0691512 1
-11.39567 16.334387 3.4244728 1.5
-11.489367 16.35577 -0.082183361 2
-11.500674 16.358173 0.25363338 1.5
-11.508265 16.346342 0.75619757 1.583333
-11.52282 16.345407 1.260066 18
-11.435294 16.372562 1.268962 1.5
-11.449099 16.377384 1.6090107 1.333333
-11.50429 16.342709 1.9420513 2.5
-11.502432 16.371773 2.2875726 104.5
-11.479747 16.372101 2.6320508 18.75
-11.389243 16.362703 3.1543317 1.75
-11.423742 16.337286 3.6748321 1
-11.511504 16.371363 -0.22007264 2
-11.503335 16.358095 0.1123219 2
-11.45032 16.38537 0.11767398 1
-11.455728 16.394333 0.45063221 1
-11.476547 16.371021 0.78109664 2
-11.508882 16.366596 1.1138554 10
-11.427903 16.403913 1.623643 2.916667
-11.511804 16.369253 2.1211317 98
-11.483392 16.377609 2.4637411 12
-11.410934 16.376316 2.8055506 1.5
-11.416116 16.376268 3.1472373 2
-11.519165 16.320253 -0.1046181 2
-11.482246 16.333008 0.22886488 3
-11.483236 16.351065 0.56191027 1
-11.475727 16.334227 1.0587192 3
-11.403522 16.381252 1.5632526 1
-11.407213 16.34503 1.8955961 2
-11.392895 16.342485 2.2317874 1.5
-11.418894 16.337299 2.568053 2
-11.458941 16.307125 -0.21313955 2
-11.48306 16.318035 0.11598252 3
-11.503207 16.307268 0.60895348 1.666667
-11.449503 16.316977 0.77455235 2
-11.438607 16.326017 1.1058871 2
-11.450176 16.315054 1.4381253 2
-11.437808 16.327408 1.7727038 1.666667
-11.487759 16.317522 2.1057947 3
-11.415326 16.320059 2.6105926 10
-11.39952 16.303251 3.1172655 1.5
-11.511313 16.328037 -0.13022062 1.5
-11.483043 16.335176 0.19720271 2
-11.482313 16.331083 0.52532589 1.666667
-11.485591 16.332424 1.0168775 4.666667
-11.525056 16.338552 2.1771247 134
-11.422397 16.336193 2.1716938 2
-11.533703 16.344049 2.5116813 21.5
-11.402903 16.349567 2.6720285 1.25
-11.522255 16.379454 2.8514357 1
-11.400599 16.340799 3.1781037 1.5
-11.396428 16.330381 3.515569 1
-11.48283 16.321999 0.2499788 2
-11.507791 16.348322 0.57725954 1
-11.49737 16.332678 1.0666572 5.166667
-11.43286 16.357632 1.2304995 1
-11.508246 16.336325 1.8893852 2
-11.436038 16.326416 1.886873 7
-11.524118 16.352777 2.2234919 250
-11.389532 16.350183 2.2191503 2
-11.531088 16.340218 2.5546868 28
-11.445504 16.356146 2.7206054 1.75
-11.410098 16.323732 3.2201216 1
-11.419184 16.320919 3.5584958 1
-11.496701 16.329117 -0.15821904 2
-11.516288 16.330318 0.16558784 3
-11.472713 16.35001 0.65673345 1.416667
-11.47095 16.350203 1.4705679 1.666667
-11.511297 16.328255 1.7979715 2.5
-11.496261 16.332247 2.1284912 5
-11.464244 16.36388 2.6292655 66.75
-11.494656 16.366306 0.33306497 2
-11.480639 16.368998 0.82106704 1.666667
-11.490199 16.35428 1.3050033 8.666667
-11.456856 16.371893 1.6334738 1
-11.475331 16.363455 1.9613512 1.333333
-11.498697 16.37141 2.2919247 11
-11.491296 16.377235 2.7891648 13
-11.41033 16.346533 2.7836974 1.75
-11.397161 16.34697 3.2861736 1
-11.462364 16.332352 0.27842766 3
-11.483725 16.323257 0.59772724 3
-11.434603 16.353159 0.6020084 1
-11.506346 16.316111 0.92007953 2
-11.41732 16.393442 0.92970616 0
-11.448095 16.328245 0.9235099 2
-11.448381 16.339533 1.2506458 2
-11.440239 16.327541 1.7390184 3.083333
-11.451019 16.31357 2.2282841 74
-11.431335 16.354519 2.8999221 4.333333
-11.511272 16.331589 -0.023588389 2
-11.470549 16.346226 0.46239546 1.5
-11.482256 16.336992 0.94273293 1.333333
-11.502861 16.334599 1.265084 19
-11.439138 16.335686 1.2668402 2
-11.455452 16.324434 1.5908035 3
-11.446627 16.339478 2.0812354 24.75
-11.47188 16.351004 2.5740547 22
-11.391911 16.33737 2.9041886 1.5
-11.394421 16.359997 3.2402995 1
-11.395395 16.32337 3.5708511 1
-11.506105 16.3398 0.024669649 2
-11.489096 16.331638 0.34626937 3
-11.463714 16.370487 0.66759062 1
-11.479136 16.362539 0.98842525 1
-11.463648 16.377613 1.3142068 3
-11.434912 16.370687 1.8002107 1.5
-11.389064 16.406456 2.2931161 0
-11.527478 16.389679 2.6232455 24
-11.414061 16.352703 2.6165659 2.5
-11.391824 16.360136 3.2817686 1.5
-11.477585 16.37534 -0.0029800099 1
-11.518245 16.328344 -0.0063978001 3
-11.451065 16.357723 0.63677579 1
-11.433252 16.404016 0.96112233 0
-11.494446 16.34297 1.1152561 5.333333
-11.484259 16.348944 1.5959123 2
-11.39643 16.397797 2.2514772 1
-11.455393 16.362812 2.7360625 5.833333
-11.440912 16.343233 3.2253499 1
-11.490363 16.34647 -0.02035764 2
-11.512376 16.323433 0.29523137 3
-11.495135 16.349987 0.61717653 1.333333
-11.524675 16.342089 0.93443608 1.333333
-11.426234 16.400579 0.94567764 0
-11.530743 16.348925 1.4173595 5.25
-11.428973 16.367119 1.4247383 1.5
-11.468152 16.344141 1.901076 2
-11.48271 16.364109 2.554292 13.5
-11.400826 16.352161 3.0462112 1.666667
-11.390382 16.349686 3.5410111 1
-11.389367 16.33943 3.8750989 2
-11.48792 16.32379 0.088538103 3
-11.463009 16.339876 0.40926772 1.333333
-11.489579 16.331656 0.72568417 1.333333
-11.401924 16.415949 1.3793015 0
-11.46882 16.323441 1.2064245 3
-11.454692 16.329201 1.6865652 1.666667
-11.45885 16.309433 2.8197722 12
-11.388339 16.32152 2.9863694 2
-11.386006 16.315474 3.3141394 1
-11.386333 16.314009 3.6480224 2
-11.468649 16.336887 0.45587349 1.833333
-11.445871 16.3487 0.93212128 1
-11.460304 16.330063 1.2487216 11.333333
-11.458845 16.344007 1.5713155 1
-11.467827 16.325266 2.0513377 41.666668
-11.459442 16.327826 2.5364223 7.75
-11.416569 16.316679 2.8630781 1.5
-11.408092 16.313272 3.1900454 2
-11.425652 16.306257 3.5217586 1
-11.506365 16.348303 0.60058928 1.458333
-11.446318 16.367449 1.078375 1.5
-11.464686 16.349285 1.3936369 2
-11.517845 16.314283 1.8681183 2.333333
-11.491751 16.332968 2.191503 48.333332
-11.528124 16.388603 2.6826935 9.5
-11.393883 16.368174 3.0093045 1
-11.392105 16.370773 3.3368068 1.5
-11.503675 16.324709 -0.049527619 2.5
-11.517428 16.329424 0.42316487 1.5
-11.496534 16.325041 0.89546132 1.666667
-11.519489 16.312794 1.2094688 32
-11.442615 16.345978 1.2164083 1.5
-11.453171 16.344921 1.694208 1.416667
-11.437757 16.345737 2.173522 3.666667
-11.43079 16.332529 2.4930055 2.5
-11.511927 16.381401 2.8254361 2
-11.422871 16.315891 2.8160844 2
-11.435731 16.316261 3.3059225 1
-11.489737 16.326029 0.32360941 1.5
-11.494803 16.313351 0.79180461 2
-11.496838 16.324875 1.1074517 2
-11.450564 16.335192 1.5869529 1.333333
-11.407362 16.343517 2.0658746 1
-11.401653 16.334419 2.3843107 1
-11.419609 16.309196 2.7038126 9.5
-11.393999 16.327459 3.1948011 1.416667
-11.498753 16.332947 0.15053988 2.5
-11.469043 16.338966 0.77959514 2
-11.470322 16.344936 1.0910975 2
-11.494827 16.333471 1.4029154 2
-11.450914 16.32593 2.3547857 57.666668
-11.493565 16.357204 2.6776357 7.333333
-11.410336 16.345873 3.0024445 1.5
-11.427418 16.352356 3.4914162 1.166667
-11.505089 16.344767 -0.00184929 2
-11.510465 16.345247 0.93164921 1
-11.51236 16.342407 1.4014381 9.25
-11.426644 16.390011 1.4116721 0.5
-11.457813 16.352474 1.5628462 3
-11.401106 16.43165 1.8875567 0
-11.456811 16.344784 1.873963 2
-11.469232 16.370491 2.1922097 5
-11.524141 16.390341 2.6719987 19.5
-11.463583 16.349669 2.6679466 1.25
-11.438278 16.345312 3.1477551 2
-11.424902 16.378798 3.4776592 0.5
-11.392755 16.361982 3.8030982 2
-11.419656 16.344942 4.1266727 1
-11.51005 16.348139 0.044685379 2
-11.525661 16.336054 0.50839537 1.916667
-11.490356 16.34535 0.97727847 1.666667
-11.482254 16.340086 1.2862904 8
-11.525441 16.392246 1.6024008 1
-11.493418 16.33399 2.0702004 5.25
-11.479345 16.31403 2.5411031 22
-11.539559 16.411383 2.8751357 14
-11.386887 16.314697 2.8605795 2
-11.406826 16.302422 3.1805296 2
-11.461862 16.367197 0.49082699 2
-11.477674 16.345322 0.95347047 2
-11.505095 16.351185 1.260288 18.5
-11.423932 16.369013 1.2661369 1
-11.421814 16.372873 1.5776552 1
-11.439293 16.357893 2.0460813 2.25
-11.404179 16.34877 2.5171783 2
-11.481684 16.384026 2.8374228 4.666667
-11.426429 16.337521 2.8311281 2
-11.412012 16.347063 3.3147678 1.5
-11.396859 16.362032 3.8050017 1.333333
-11.503489 16.332537 -0.028272521 2.5
-11.508878 16.339453 0.7416715 1.5
-11.513984 16.331612 1.2050612 11.666667
-11.41398 16.378723 1.2140814 0
-11.411112 16.383453 1.5225804 0.5
-11.425589 16.353277 1.8298345 15.5
-11.449722 16.31904 2.2950783 27.25
-11.469299 16.345034 2.7702553 1
-11.482412 16.355364 0.0536802 1
-11.472414 16.350119 0.36075127 1
-11.497653 16.332088 0.81949991 2
-11.485632 16.346094 1.2835222 9.333333
-11.523088 16.393534 1.5935355 1
-11.405648 16.335304 2.840879 1.5
-11.388237 16.324158 3.4762857 1.5
-11.398914 16.31826 4.1223845 1
-11.502234 16.358814 0.42154339 1
-11.499706 16.336588 0.7267915 2
-11.455025 16.376297 0.7314868 1
-11.457693 16.361837 1.1910295 2
-11.461554 16.350307 1.6522558 1.666667
-11.457315 16.351461 1.9592797 2
-11.455692 16.359663 2.2706242 3.333333
-11.467356 16.359644 2.7406504 12.083333
-11.409564 16.353189 3.5305712 1.5
-11.523279 16.329187 -0.083389163 2
-11.5247 16.328415 0.22269785 2.5
-11.499102 16.341106 0.68280721 1.166667
-11.474115 16.345501 1.1431018 3.666667
-11.448867 16.351152 1.4520682 1.333333
-11.40007 16.366749 2.0741787 1
-11.498541 16.308546 2.3708642 41
-11.421682 16.337296 2.3793578 2
-11.449731 16.329597 2.6857138 2
-11.399435 16.337103 3.4780231 1.75
-11.452422 16.364275 4.9426045 0
-11.486118 16.328838 0.20769337 2
-11.476938 16.332077 0.66358632 1.666667
-11.472303 16.339098 0.96881229 0.75
-11.461883 16.336906 1.4280928 7.166667
-11.39871 16.313072 2.817323 2
-11.490108 16.346735 0.23543052 1.125
-11.513849 16.32662 0.68825752 1.666667
-11.513903 16.323956 0.99263632 1.5
-11.435308 16.345705 1.0002024 1
-11.436702 16.345449 1.4587221 1.416667
-11.465508 16.341042 1.9173095 1.333333
-11.48583 16.309345 2.2180963 27
-11.441916 16.345078 2.6917171 6.25
-11.485924 16.350172 3.0037189 4.25
-11.41338 16.326738 3.4749365 1.5
-11.419798 16.341661 3.7954412 2
-11.48796 16.33359 0.26360279 2
-11.478857 16.361967 0.57093191 1.333333
-11.491436 16.345387 1.0273871 7.458333
-11.426817 16.352243 1.4956816 1
-11.475807 16.327007 1.4879594 3
-11.495031 16.354944 1.7950101 2.5
-11.464498 16.324438 2.7277365 1
-11.399893 16.336046 3.0487685 1
-11.412511 16.334412 3.363658 1
-11.390194 16.329357 3.8463676 1.5
-11.499836 16.373415 0.34605446 1
-11.509638 16.369522 0.80201352 1.833333
-11.519554 16.364815 1.2594482 11
-11.524742 16.357004 1.5623791 1.333333
-11.436554 16.364784 2.4992566 1.5
-11.49785 16.343357 2.8023362 1
-11.452507 16.348547 3.1203494 1
-11.438684 16.347599 3.5991521 1.75
-11.418165 16.329805 4.0796399 2
-11.498512 16.3384 0.29600742 2
-11.515759 16.349419 1.0549673 7.333333
-11.490772 16.354078 1.5160704 1
-11.46932 16.334835 2.2822518 8.833334
-11.476793 16.34758 2.7498422 1.5
-11.429775 16.348333 3.0648999 1.333333
-11.40526 16.338728 3.3789072 2
-11.482628 16.312513 0.56288958 2
-11.473313 16.331902 0.87107158 1
-11.479192 16.338364 1.1749426 5
-11.494405 16.302738 1.6312455 2.25
-11.454306 16.296644 2.4092047 6
-11.503699 16.325611 2.7218947 9.5
-11.411674 16.307322 2.8863657 1.5
-11.386253 16.30496 3.2055607 1.25
-11.487384 16.369495 0.59764338 1
-11.490363 16.337439 1.0546153 1.666667
-11.485308 16.323128 1.5147818 2
-11.40777 16.34259 1.5246645 1
-11.417507 16.326584 1.828979 1.5
-11.418535 16.320131 2.2933125 1.833333
-11.424148 16.332584 2.7638855 14
-11.428509 16.311703 3.0769324 1
-11.449498 16.348042 1.1067204 1
-11.486666 16.331945 1.4046988 2.5
-11.492108 16.325203 1.8648808 2
-11.489729 16.340197 2.6423774 17.75
-11.446717 16.324396 2.9569714 2
-11.409006 16.330109 3.2793407 1.5
-11.507639 16.3417 0.56462783 2.5
-11.491679 16.342787 1.0233936 2
-11.497263 16.333578 1.3248978 13.5
-11.486264 16.308746 2.2459695 13.25
-11.399416 16.362513 2.5710118 0
-11.430446 16.336319 2.8758864 1
-11.430454 16.333107 3.349983 1.5
-11.401334 16.330719 3.8314965 1.5
-11.498075 16.317244 1.5126297 2.5
-11.451684 16.320311 1.9768256 4
-11.455669 16.314524 2.4387538 3
-11.439669 16.328466 2.7515061 1.666667
-11.443199 16.315889 3.0609541 1.5
-11.413143 16.320665 3.539016 1
-11.500305 16.347805 0.50975573 2
-11.51028 16.338013 0.96249163 2.25
-11.496429 16.347658 1.4197257 1.666667
-11.494919 16.346485 1.7218935 2.5
-11.518326 16.332146 2.1784167 2.625
-11.528887 16.363329 2.6449537 23.666666
-11.436792 16.339972 2.9566848 1.5
-11.466087 16.354069 3.2693517 1.5
-11.411548 16.349783 3.7471688 1
-11.463882 16.323862 0.95118034 1
-11.474727 16.299709 1.5550355 3
-11.481546 16.311718 2.7898464 5.75
-11.432573 16.288607 3.1026206 2
-11.448674 16.343369 0.38669196 0
-11.490385 16.32448 0.68466032 2
-11.480485 16.323168 0.98834169 2
-11.496731 16.313095 1.290525 26.5
-11.43996 16.321259 1.4528208 2
-11.477623 16.320765 1.9095006 2
-11.417224 16.307077 2.2239168 1.5
-11.405898 16.306276 2.6927018 7.166667
-11.420259 16.292068 3.1595652 1
-11.413937 16.312084 3.4835441 1
-11.506588 16.311913 0.63872826 2.5
-11.499073 16.30784 1.3995155 4
-11.422508 16.319723 2.335825 1.5
-11.500263 16.33041 2.6366482 19
-11.391605 16.315523 2.6492102 1
-11.421108 16.303467 3.1135995 1.75
-11.499119 16.326134 0.82408088 2
-11.500249 16.320614 1.2811552 20.5
-11.518662 16.316702 1.5814483 2
-11.465811 16.322355 1.5895875 2
-11.496258 16.330915 2.0475094 3.833333
-11.489803 16.347956 1.742501 1.5
-11.501172 16.344191 2.2034841 1.666667
-11.495937 16.340179 2.5126927 1.333333
-11.459879 16.348164 2.9885678 1.5
-11.423288 16.342924 3.4665947 1
-11.440593 16.335377 3.7839222 1.5
-11.438406 16.357548 1.7877654 0
-11.527095 16.329386 2.2352571 3
-11.500633 16.33884 2.7021742 14.333333
-11.413059 16.338903 3.0204513 1
-11.421412 16.341919 3.3322582 1
-11.421824 16.276308 2.4929352 0
-11.399571 16.272402 2.8044448 1
-11.461726 16.3244 2.6715641 1.25
-11.420264 16.325994 3.150337 1
-11.397146 16.31138 3.4671576 2
-11.425733 16.319656 3.7823617 1
-11.389906 16.319824 4.2752991 1.25
-11.525797 16.330835 1.919703 1.25
-11.518322 16.319677 2.3883631 1
-11.474724 16.314529 2.7089822 1.5
-11.512346 16.322559 3.1787493 1
-11.463551 16.316477 3.3475144 2
-11.471509 16.312519 3.6656342 1.333333
-11.47811 16.317661 3.9914839 1.333333
-11.455572 16.3085 1.3230731 1.333333
-11.503285 16.320139 1.7813793 4
-11.464373 16.304386 2.0997169 2.5
-11.521007 16.320873 2.7212605 40
-11.456098 16.341618 1.2781054 0.75
-11.496758 16.309177 1.2674627 3.5
-11.477677 16.329681 2.5248091 14
-11.417946 16.323832 2.6962078 1.5
-11.428635 16.311453 3.0104876 2
-11.391847 16.320044 3.3394628 1.5
-11.432488 16.321669 3.6526697 2
-11.389655 16.312868 4.1526394 1.25
-11.529581 16.371172 0.93124455 0.66666698
-11.461007 16.350393 1.8740928 1
-11.489215 16.329256 2.1765583 1.5
-11.492056 16.320087 2.6463695 1.75
-11.492268 16.33091 3.123502 1.5
-11.416941 16.348352 3.4595859 1
-11.447251 16.334358 3.7729702 1.5
-11.478477 16.321903 4.0914407 1
-11.440224 16.330759 4.2646284 1.25
-11.431144 16.337515 4.7656579 1.333333
-11.5255 16.347445 2.0898421 3.5
-11.476334 16.340794 2.4107165 3.5
-11.4811 16.349323 2.7263949 1.5
-11.474551 16.358 3.2083747 1.25
-11.418112 16.355169 3.7014897 1
-11.478447 16.360184 4.014636 1
-11.425058 16.351805 4.0242043 2
-11.405896 16.355009 4.359561 1.5
-11.41704 16.353024 4.8565726 1.5
-11.488215 16.339787 0.72037208 1
-11.508719 16.325333 1.0243732 2
-11.528035 16.337448 1.330382 22.333334
-11.454198 16.318338 2.2738953 1
-11.518665 16.338938 2.576683 13.333333
-11.495189 16.321167 2.8932538 2
-11.440493 16.32892 2.9034572 1
-11.444453 16.32147 3.3801842 2
-11.45099 16.328554 3.8612714 1.5
-11.419262 16.322672 4.1899643 2
-11.465269 16.328716 4.8441653 1
-11.516924 16.329247 0.83216381 2
-11.526267 16.334358 1.1382692 2.25
-11.501028 16.335812 2.070081 3
-11.502991 16.335423 2.6927204 17.666666
-11.422845 16.325039 3.0168252 1.5
-11.424744 16.315844 3.4931364 2
-11.429035 16.319216 3.9734631 1.5
-11.43994 16.328655 4.2978263 1
-11.39856 16.31229 4.6299939 1.5
-11.428162 16.332691 5.1294498 3.25
-11.459785 16.308083 1.1594024 2
-11.471653 16.297535 1.623981 1.666667
-11.517965 16.346888 1.0107388 2
-11.480833 16.308552 2.2507975 2
-11.453625 16.347404 2.5705149 1
-11.513307 16.351786 3.0391002 1.25
-11.460254 16.338152 3.2020209 2
-11.439415 16.348202 3.5240533 2
-11.470861 16.358152 3.8430176 2
-11.416838 16.347942 3.8478253 1
-11.449835 16.347605 4.1701097 2
-11.508952 16.3948 4.8326941 0
-11.469497 16.359293 4.6631689 1
-11.519049 16.33285 0.74187016 2
-11.43421 16.352505 1.0593338 0
-11.519696 16.339382 1.5162153 5.5
-11.520479 16.342367 1.9839239 1
-11.443007 16.294998 2.2978499 2
-11.467152 16.338598 2.6139164 11.333333
-11.494961 16.350121 2.9300334 1
-11.42869 16.314325 3.0915432 2
-11.391294 16.311804 3.573591 1
-11.392279 16.319845 3.8971522 1.5
-11.396856 16.321457 4.7199965 1.25
-11.483558 16.315308 0.61501622 2
-11.478037 16.32126 0.92497277 1
-11.480202 16.30349 0.92438018 2
-11.471626 16.316866 1.3913019 14.083333
-11.421628 16.308535 2.9649734 1.416667
-11.446126 16.300741 3.4398806 1
-11.408326 16.30163 4.4213829 1
-11.487824 16.303579 0.74604255 2
-11.474518 16.315405 1.5249249 1.25
-11.419305 16.272413 3.9036727 1.5
-11.410511 16.342947 2.9823785 1
-11.394602 16.345461 3.4649 1
-11.447601 16.354403 3.7841587 1
-11.420263 16.340326 4.1133819 2
-11.511932 16.317907 1.3127737 22.25
-11.41512 16.321569 1.9630048 1
-11.474691 16.299355 1.9513533 2
-11.430613 16.293472 2.9167309 1.5
-11.424706 16.298531 3.2416863 1.5
-11.447297 16.304525 3.5653777 2
-11.438852 16.31077 3.8966253 1
-11.406244 16.309431 4.5665841 1.5
-11.402406 16.316481 4.9088154 1.5
-11.513922 16.30497 5.2233186 4.75
-11.483032 16.305038 0.99028468 1
-11.503601 16.306267 1.4596883 10.083333
-11.53042 16.315081 2.5661297 15.333333
-11.485044 16.311577 3.0558968 1.5
-11.439056 16.310896 3.5471709 2
-11.454954 16.318291 3.872385 1.5
-11.445132 16.31221 4.2040782 1.5
-11.454292 16.323463 4.7047582 1.25
-11.497545 16.323631 5.2024083 4.4000001
-11.512371 16.353254 1.4585125 13.333334
-11.479121 16.346872 3.0554581 1.75
-11.489549 16.352947 3.5385489 2
-11.470718 16.342501 3.8663716 2
-11.450042 16.345089 4.2008996 2
-11.433641 16.33946 4.7024841 1.5
-11.443444 16.369825 5.2140055 2
-11.527107 16.378077 0.77257943 1
-11.515067 16.379131 3.1671522 1.75
-11.435589 16.396193 3.6675894 1
-11.476784 16.367897 3.985945 2
-11.481525 16.383814 4.3211761 1.5
-11.484396 16.393106 4.6577377 0.66666698
-11.495325 16.394022 4.9931908 1
-11.498825 16.349527 2.8904691 1.5
-11.476212 16.340322 3.3803263 1.5
-11.484266 16.339432 3.8719993 2
-11.451811 16.333357 4.2095017 2
-11.419036 16.329185 4.54775 1
-11.489466 16.371468 4.8905363 1
-11.412228 16.325245 4.889164 1.5
-11.519859 16.335535 0.53893185 2
-11.465973 16.346233 1.4991981 1
-11.502137 16.359898 2.7824609 1.5
-11.417386 16.349081 2.7916989 1
-11.504919 16.361225 3.1095734 1
-11.450396 16.344917 3.114502 2
-11.452493 16.350588 3.6079273 1.75
-11.405524 16.346672 4.110764 1.5
-11.411005 16.361107 4.7895398 1
-11.468392 16.36845 5.1273284 3.5999999
-11.511461 16.34 0.56189942 0.5
-11.518045 16.310827 0.56151617 3
-11.524599 16.329924 0.88042307 2.5
-11.437164 16.330366 0.89156246 0
-11.450832 16.318537 1.2105615 3
-11.453115 16.31868 1.6940818 1.5
-11.397688 16.294024 2.836535 2
-11.387196 16.286791 3.3316104 2
-11.407702 16.287289 3.826349 1
-11.384613 16.277531 2.003989 1
-11.396357 16.271141 2.9853139 2
-11.388749 16.266399 3.3185453 2
-11.425583 16.308243 4.3282766 1
-11.48487 16.301836 1.6038681 1.333333
-11.443738 16.283472 2.751308 1.25
-11.433905 16.279037 3.2450709 1.5
-11.41522 16.286751 3.5817502 1.5
-11.399055 16.286306 3.9212637 1.5
-11.409044 16.287481 4.2581644 1.333333
-11.41785 16.289385 4.7687526 1.5
-11.489826 16.348606 1.0817256 0
-11.504881 16.331463 1.4037549 1.5
-11.529234 16.337219 3.038868 2
-11.51075 16.338707 3.374794 1.5
-11.496244 16.326385 3.7122538 1.5
-11.52916 16.349583 4.0484171 1.5
-11.441766 16.341331 4.0621209 1
-11.54299 16.357182 4.3870211 1
-11.461958 16.324085 4.3955336 1.5
-11.454296 16.352501 4.9210987 0.66666698
-11.499773 16.408424 3.0172012 1
-11.505991 16.411367 3.3521526 1.5
-11.452944 16.399979 3.6952479 1
-11.492885 16.401926 4.0271907 1
-11.512918 16.428204 4.5433555 1.25
-11.437799 16.438581 5.0799761 0.66666698
-11.530985 16.371239 2.8795118 1.5
-11.48827 16.364843 3.3862476 1.5
-11.498822 16.367296 3.7240868 2
-11.435074 16.371653 4.0762758 0.33333299
-11.48533 16.389931 4.4128661 1
-11.487595 16.393261 4.9352546 2
-11.439747 16.352854 1.8690413 0
-11.478174 16.328096 3.202426 2
-11.501902 16.328924 3.5397274 1.5
-11.436951 16.311335 3.8941269 1.5
-11.490789 16.325752 4.229485 1.5
-11.504211 16.365377 4.581522 1
-11.457411 16.310305 4.7596087 2
-11.477533 16.330145 5.1136708 0.91666698
-11.5163 16.328938 0.74498034 2
-11.445978 16.30525 1.4204892 2
-11.467157 16.309834 1.75107 2
-11.445448 16.30006 2.7602549 10.75
-11.436906 16.300694 3.1029658 1.5
-11.45159 16.31945 3.4442353 1
-11.404965 16.274084 3.4487176 2
-11.399689 16.281467 3.7937202 2
-11.416346 16.299458 4.3154759 1
-11.438053 16.282448 5.196105 3.25
-11.483022 16.316299 1.057791 3
-11.501741 16.32242 1.3875477 3.5
-11.521172 16.326838 1.7183623 1.333333
-11.457473 16.324821 2.9083474 1.5
-11.473579 16.328091 3.4155881 2
-11.434328 16.327991 3.7687838 1.5
-11.422672 16.359842 4.1224527 0.66666698
-11.416534 16.333054 4.468739 1
-11.54675 16.365683 5.156158 1.75
-11.454125 16.32276 2.0118244 0
-11.467128 16.310354 3.368969 1
-11.480196 16.327587 3.7153516 1.5
-11.468697 16.314835 4.0643668 1.5
-11.516999 16.331629 4.4067941 1.5
-11.526489 16.362741 4.7634315 1
-11.479183 16.316561 4.765492 2
-11.428049 16.344082 5.1416035 2
-11.436898 16.389938 2.6355591 1
-11.504301 16.375799 2.6223831 2
-11.536379 16.384035 3.1301236 1.25
-11.512098 16.377422 3.6556878 1.5
-11.501066 16.379694 4.0085783 1.5
-11.410403 16.369501 4.0263605 1
-11.494691 16.389465 4.3630009 1.5
-11.407204 16.369637 4.3791947 1
-11.489074 16.388094 4.7195392 1.5
-11.455189 16.380552 5.087975 1.333333
-11.518236 16.338037 1.3399339 15.666667
-11.533046 16.321762 1.8440473 10.5
-11.47891 16.350668 2.8786409 1.5
-11.468586 16.339205 3.2249053 1.5
-11.482219 16.349537 3.5676928 2
-11.469183 16.346901 3.9189408 2
-11.449151 16.365681 4.2789469 0.5
-11.460327 16.376997 4.6340423 1
-11.455753 16.362822 4.9900193 0.5
-11.501146 16.309977 0.74641061 2
-11.507103 16.319109 1.2538733 22
-11.467079 16.300285 1.6001599 2
-11.488939 16.296021 2.6261106 7.75
-11.4714 16.304289 2.9732568 1.5
-11.392603 16.281569 3.1595471 1.25
-11.445742 16.315157 4.3889489 1
-11.435242 16.309547 4.7493973 1
-11.425478 16.304419 5.1163192 1
-11.510339 16.379715 1.7177579 1.333333
-11.460616 16.296989 2.0716991 3
-11.474022 16.321564 2.9360671 1.75
-11.469139 16.300907 3.4631934 1
-11.403648 16.303589 3.4771557 1
-11.393223 16.307472 4.1903191 0.5
-11.404678 16.278305 4.1843362 2
-11.446147 16.327881 4.5400834 1
-11.530769 16.30304 5.2467442 3.25
-11.507627 16.312653 1.6460363 1
-11.53152 16.348484 3.0301628 2
-11.465279 16.312485 3.387399 2
-11.521514 16.365528 3.9138687 1
-11.456816 16.321594 3.9212682 1.25
-11.474593 16.340008 4.4575748 1
-11.462605 16.345707 4.8215909 0.66666698
-11.491514 16.334982 2.5161252 2
-11.506788 16.351934 2.8647881 1.5
-11.461492 16.355446 3.2230949 1
-11.461493 16.358629 3.7569323 1.25
-11.430344 16.350267 4.3018117 1
-11.47632 16.38571 4.6579189 1
-11.429119 16.339317 4.6620646 1
-11.419573 16.341249 5.0296931 2
-11.479366 16.37307 2.6459982 1.5
-11.495216 16.334555 2.6413755 2
-11.488276 16.338148 2.9962478 2
-11.510514 16.351763 3.3475883 1.5
-11.525856 16.381849 3.7010098 1
-11.480142 16.331589 3.7064533 2
-11.523806 16.375208 4.0601673 1
-11.423164 16.358459 4.6283751 0.66666698
-11.458204 16.344963 5.1689382 2.666667
-11.464029 16.2913 2.7471068 1.5
-11.476126 16.32461 3.1001132 2
-11.426243 16.284395 3.1079068 1
-11.472257 16.317438 3.4564478 2
-11.466589 16.315193 3.8163829 1
-11.410407 16.289112 3.8262408 1
-11.457431 16.321434 4.1801333 2
-11.401235 16.295128 4.1899929 2
-11.394274 16.295395 4.5523639 2
-11.5048 16.326883 5.2674794 2
-11.50843 16.306618 3.5045912 1
-11.464912 16.287987 4.2322173 1
-11.471257 16.292675 4.5932746 1.5
-11.480441 16.2922 4.9585614 1
-11.518937 16.403822 1.7268975 1
-11.449183 16.410965 2.7956691 0
-11.490217 16.399502 3.1461396 1
-11.489079 16.404858 3.5062704 1.5
-11.492359 16.400831 3.8667393 2
-11.433578 16.377207 3.8732131 0
-11.520081 16.419197 4.2252054 2
-11.459599 16.399109 4.2324901 1
-11.536643 16.463497 4.5948706 1
-11.462831 16.395695 4.5975718 1.5
-11.51694 16.434832 4.9651608 1
-11.466143 16.393129 4.9674811 2
-11.47245 16.407042 3.7899461 1
-11.523499 16.408606 4.1444154 1.5
-11.462745 16.389648 4.8989086 0.66666698
-11.500592 16.4146 5.2712188 1
-11.494025 16.365292 2.6838303 1
-11.50999 16.362818 3.0433469 1
-11.515265 16.373123 4.1397915 1
-11.484323 16.38917 4.5196495 0.5
-11.501363 16.353924 4.51193 1
-11.469929 16.349045 5.2680063 4
-11.489552 16.311893 2.8870921 1
-11.495408 16.311211 3.6132064 1.5
-11.522207 16.335989 3.9815984 1
-11.459432 16.31772 4.3619814 0.5
-11.504166 16.315067 4.7268338 1
-11.462741 16.334829 5.1148849 0.66666698
-11.532033 16.339712 2.7494476 3.666667
-11.488091 16.344778 3.4899628 0
-11.415508 16.276209 3.4983277 1.5
-11.419463 16.299902 3.8721993 1
-11.423388 16.286495 4.6198559 1
-11.426896 16.312723 5.0018954 0
-11.474439 16.302139 2.0615132 2
-11.534237 16.331833 2.7855413 7.5
-11.473145 16.34758 3.1631467 0.5
-11.461108 16.339775 3.536072 1
-11.476116 16.350838 3.9091885 1
-11.452793 16.337559 4.6676168 1
-11.463189 16.359222 5.0498619 0
-11.533309 16.352612 4.0187082 1
-11.524696 16.337936 4.3964214 1
-11.548368 16.393785 4.7793117 1
-11.540228 16.396372 5.1699033 2
-11.530775 16.484182 4.8105922 1.5
-11.449443 16.343084 2.6747341 2.5
-11.512107 16.334887 3.0362968 1.5
-11.46482 16.323614 3.4217587 1
-11.44886 16.324379 3.806443 1
-11.513949 16.374178 4.1798782 1
-11.511325 16.426477 4.56988 0
-11.494396 16.363585 4.9556475 1
-11.519845 16.3132 3.3278735 2
-11.445247 16.281002 3.7233415 1
-11.513595 16.343334 4.0967216 1
-11.518983 16.377628 4.4856191 0
-11.447885 16.304302 4.4949918 1.5
-11.491861 16.339067 4.8820076 0.5
-11.495101 16.313448 5.2721276 2
-11.513461 16.385952 3.3959546 1
-11.518476 16.405275 4.5597429 1
-11.531459 16.409168 4.9535241 1
-11.491147 16.377932 1.7274712 0
-11.523903 16.402639 3.2428975 0.5
-11.518565 16.376852 3.626008 2
-11.535299 16.437433 4.013803 0
-11.422777 16.367899 4.0294991 1
-11.520401 16.423103 4.408659 1
-11.435214 16.372465 4.4207821 1.5
-11.47709 16.39226 4.8072543 1.5
-11.483573 16.4014 5.206512 2
-11.447804 16.379641 2.6407833 2
-11.502784 16.375877 3.0177779 1
-11.485124 16.356491 3.406076 1
-11.50666 16.351242 3.7886209 1.5
-11.503968 16.379904 4.1812062 1
-11.518471 16.381512 4.5748916 1.5
-11.457501 16.379679 4.9839001 1
-11.466445 16.451685 3.9998193 0
-11.500257 16.453203 4.3863082 1.5
-11.514179 16.481649 4.7826018 1
-11.507238 16.307957 1.5836656 2
-11.516024 16.32983 2.1610837 0.5
-11.497414 16.33363 2.7496736 4
-11.519667 16.386801 3.1360705 0
-11.416711 16.299181 3.1628911 1
-11.492966 16.329678 3.5380492 1
-11.485217 16.367514 3.9337935 1
-11.497155 16.375977 4.329936 0
-11.403462 16.302307 4.7580009 1
-11.451747 16.307667 3.7870526 1
-11.449773 16.297029 4.1859922 1
-11.433958 16.306322 4.5922136 1
-11.478814 16.298271 3.1406631 1
-11.473413 16.295738 3.5442538 1
-11.466294 16.28594 4.3577952 1
-11.461263 16.34605 2.8383324 1
-11.507163 16.387623 3.2396469 1
-11.504722 16.379465 3.6459107 1
-11.497194 16.378252 4.0556521 1
-11.483727 16.385365 4.4702888 1
-11.483973 16.373711 4.8839073 1
-11.544737 16.434 4.2803473 2
-11.501712 16.456682 5.1309566 1.5
-11.511401 16.310192 1.7232465 1
-11.527554 16.327148 3.3674042 1
-11.503885 16.354534 3.7886858 1
-11.491663 16.305893 4.2060466 1
-11.482327 16.314775 4.6306725 1
-11.454564 16.286787 5.0580454 1
-11.517557 16.360392 3.2958717 0
-11.503093 16.33481 3.7171631 1
-11.486111 16.312588 4.1414752 2
-11.500314 16.371729 4.567049 0
-11.390621 16.28652 5.0125899 1.5
-11.53363 16.370346 4.4589758 0.66666698
-11.523368 16.353203 4.8971543 1
-11.538513 16.414181 3.1550822 1
-11.472769 16.443224 3.5804939 0
-11.544542 16.444807 4.0286984 2
-11.443995 16.476385 4.9798002 1.333333
-11.463217 16.302868 4.7207723 0
-11.466087 16.309813 3.1259599 1
-11.414658 16.273529 3.6010466 1
-11.397493 16.267017 4.071064 1.5
-11.403515 16.271675 5.0120568 1
-11.518209 16.433828 2.8650947 0
-11.540413 16.447451 3.3347945 1
-11.515747 16.443039 3.8132954 1
-11.501505 16.434071 4.2917452 1
-11.528509 16.44248 4.7645211 2
-11.535603 16.458635 4.8207784 1
-11.513863 16.342398 3.4543092 1
-11.544191 16.349461 3.9273129 0
-11.467422 16.317154 4.9115086 1
-11.416391 16.285925 5.4095192 1
-11.511848 16.322845 3.4498231 1
-11.526676 16.342243 3.9306691 1
-11.474274 16.308458 4.4300208 1
-11.495296 16.314886 4.9151917 0
-11.413225 16.27565 4.9320936 0
-11.442303 16.280481 5.4177942 0
-11.537567 16.458708 3.8511641 2
-11.544056 16.489897 4.3472157 1
-11.517111 16.485544 4.8510838 1
-11.515734 16.378201 3.4630144 0
-11.550549 16.461267 4.5093665 0
-11.538544 16.412373 3.5033202 2
-11.535439 16.42902 4.0135403 0.5
-11.510075 16.404543 4.5328197 1
-11.453028 16.402262 5.0589571 0.5
-11.529079 16.484034 4.072422 1
-11.444695 16.47657 5.2382269 1
-11.522219 16.32032 2.981216 3
-11.502451 16.337826 3.5101161 0.5
-11.497992 16.341105 4.0362077 0
-11.475887 16.297325 4.5695872 0
-11.518105 16.320969 3.8712471 0
-11.521706 16.379747 3.3156152 2
-11.487066 16.374813 3.8869724 2
-11.478527 16.405394 4.4533296 0.5
-11.420507 16.353621 5.0331845 1.666667
-11.523369 16.34556 3.4660079 1
-11.497559 16.374744 4.0438657 0
-11.451334 16.283901 4.6356716 1
-11.515556 16.477692 5.1889391 2
-11.536642 16.331017 3.353126 2
-11.520351 16.359846 4.5220351 0.5
-11.495848 16.358154 5.1148863 1
-11.497911 16.356098 4.0033512 0
-11.51602 16.437452 3.7473719 0.5
-11.488771 16.405136 4.3666005 1
-11.516579 16.377661 3.2688751 0
-11.519899 16.334045 3.8901558 0
-11.484573 16.326771 4.5169387 0
-11.520443 16.325287 0.84841394 6
-11.517139 16.303696 2.7344089 12
-11.437009 16.307243 2.4823992 3
-11.50016 16.329002 0.96410143 24
-11.496965 16.314785 1.3633298 3
-11.498507 16.305538 2.5999761 3
-11.488869 16.35799 0.84581995 10
-11.375502 16.288525 1.0484633 2
-11.385848 16.317043 0.99163777 22
-11.376505 16.276466 1.4579773 3
-11.460708 16.347534 2.7073457 4
-11.454811 16.381603 3.3348544 1
-11.493223 16.442318 3.8602848 2
-11.514555 16.402248 2.0867002 12
-11.537458 16.341267 3.9552529 1
-11.516134 16.380245 4.9401665 1
-11.49861 16.398754 4.0163875 1
-11.487053 16.369919 2.0994596 8
-11.495049 16.422401 3.0668828 1
-11.478442 16.47028 4.6850557 1
-11.50089 16.447746 1.7449565 4
-11.469889 16.432758 4.2575679 1
-11.50039 16.422188 4.7319241 1
-11.520943 16.394583 4.6749272 1
-11.535731 16.462887 1.8140682 6
-11.530498 16.416443 2.7693124 1
-11.51018 16.405207 3.159272 1
-11.502259 16.354658 3.0464697 1.5
-11.505965 16.341085 3.4274554 2
-11.519064 16.435818 1.1182073 0
-11.497195 16.401424 2.2318099 1
-11.497951 16.401196 2.6071305 2
-11.451715 16.435778 3.0098779 1
-11.378148 16.432644 -0.8695454 20
-11.535904 16.347246 2.3816602 1.5
-11.534292 16.341551 2.7562859 1
-11.524503 16.37855 3.1527536 1
-11.533466 16.393852 2.5192876 1.5
-11.455586 16.40274 -0.8419379 20
-11.505963 16.394156 2.4816573 1
-11.49682 16.360502 2.8525376 1
-11.461752 16.394339 3.258112 1
-11.518552 16.357529 2.7705059 1.5
-11.503162 16.364553 3.1629863 1
-11.492137 16.411652 2.5336559 2
-11.48265 16.371489 2.908489 1
-11.521889 16.327793 2.8835728 1
-11.511637 16.394341 2.8053019 1
-11.501751 16.370928 2.8794193 1
-11.529148 16.42354 2.1940606 1
-11.454701 16.449352 -0.86103088 20
-11.528868 16.414316 2.4976974 1
-11.510484 16.378096 2.3212872 1
-11.510575 16.351774 2.3993003 2
-11.536712 16.362106 2.468122 1
-11.524712 16.357903 1.9737842 4
-11.536973 16.400394 2.1212382 0
-11.499596 16.389851 2.8712082 0
-11.507334 16.429228 3.2605162 1
-11.530318 16.380911 2.1097121 1
-11.523471 16.36141 2.8515477 1.5
-11.489659 16.387388 3.244287 1
-11.511971 16.358452 2.9176817 1
-11.505618 16.370541 3.3017099 1
-11.522682 16.352734 3.0459712 1.5
-11.511912 16.359959 3.4296427 1.5
-11.404369 16.381029 -0.87954259 18
-11.520854 16.360044 2.734688 1.5
-11.473969 16.360813 3.1178391 1
-11.508968 16.33016 3.4819057 2
-11.486385 16.358614 3.0804539 1
-11.505718 16.359783 3.4570208 1
-11.521505 16.352381 2.8678443 1.5
-11.519821 16.367035 3.2525795 1.5
-11.492897 16.451685 -0.85182071 20
-11.530716 16.344643 3.1660278 1
-11.52642 16.378349 3.0645509 1.5
-11.530375 16.355438 2.8707612 1.5
-11.532893 16.352201 2.9786305 1
-11.399163 16.329771 -0.85823613 18
-11.383275 16.398657 -0.86522973 19
-11.403847 16.306307 -0.74043077 62
-11.532943 16.389601 1.7566639 6.5
-11.512001 16.376751 2.0198429 1
-11.506336 16.402388 2.4002795 1
-11.490772 16.357237 2.2076213 1
-11.53197 16.41087 1.948236 0
-11.409093 16.291676 -0.70062101 10
-11.528406 16.409431 1.919809 1
-11.473769 16.410271 2.5576262 0
-11.532835 16.389782 1.2698746 1
-11.522251 16.380981 1.9974489 1
-11.522756 16.38917 2.7353055 0.5
-11.507061 16.369781 2.7255585 1
-11.54013 16.359642 3.0525646 2
-11.530931 16.391739 3.1090508 1.5
-11.492684 16.395466 2.5961239 1
-11.528759 16.342825 2.5755186 2
-11.494813 16.382589 2.9674053 1.5
-11.530199 16.365553 2.4004619 4.5
-11.493815 16.375359 3.1568503 1.5
-11.509697 16.390316 2.6619058 1
-11.51794 16.380266 3.0296755 1
-11.499612 16.385387 3.4123216 1.5
-11.498949 16.364769 3.4480062 1.5
-11.531993 16.370352 2.2716434 2
-11.526093 16.366695 3.0170872 1.5
-11.533768 16.356567 3.391104 1
-11.533165 16.360304 3.0532157 1.5
-11.541795 16.349337 3.4271901 1
-11.53422 16.371099 3.0016177 1.5
-11.484079 16.375336 3.3901231 1
-11.532463 16.366213 2.9600613 2
-11.468568 16.403482 3.3614359 0
-11.513456 16.365269 3.3417511 2
-11.52457 16.364824 2.8900394 1.5
-11.509255 16.372643 3.2728367 1.5
-11.513296 16.402401 2.509831 1
-11.497719 16.387238 3.2575903 1.5
-11.489397 16.388994 2.902113 1
-11.496247 16.381985 3.2759664 1.5
-11.519312 16.381882 2.8928804 1.5
-11.49982 16.385559 3.2745624 1.5
-11.536805 16.381069 2.6679621 1.5
-11.518716 16.380732 3.0439553 1
-11.512146 16.401039 3.4303052 1.5
-11.513401 16.371571 3.0358145 1.5
-11.497995 16.379189 3.4193559 1
-11.502684 16.377668 2.919718 1
-11.51123 16.369455 3.293515 1
-11.470758 16.474964 -0.76155716 20
-11.507222 16.39068 3.241998 1
-11.509637 16.377625 2.889338 1.5
-11.49896 16.39678 3.273958 1.5
-11.509281 16.382452 2.8622694 1
-11.49437 16.39529 3.245522 1.5
-11.512237 16.368402 2.7496157 1.5
-11.500004 16.384439 3.1327951 1.5
-11.531849 16.366272 2.3816252 2
-11.521264 16.369736 3.1306875 1.5
-11.529043 16.397446 2.2174776 1
-11.520718 16.392153 2.9954493 2
-11.491232 16.429449 3.1922462 1
-11.392247 16.473543 -0.77678144 20
-11.535446 16.409376 1.7179315 1
-11.512989 16.40633 2.0892901 1
-11.537669 16.39353 2.8262658 1.333333
-11.505105 16.372952 3.2036438 2
-11.529579 16.384735 2.3379426 1.5
-11.520493 16.383307 3.086411 0.66666698
-11.525137 16.39109 2.6778548 1.5
-11.529512 16.367638 2.7865055 2
-11.536781 16.386158 3.2321191 2
-11.528762 16.432482 1.6059484 0
-11.5105 16.401571 2.329195 1
-11.49527 16.373816 3.0630279 2
-11.492202 16.369965 3.4371212 1
-11.533757 16.384987 1.8564763 1
-11.537106 16.360842 2.9482939 2
-11.473324 16.437065 3.3507168 1
-11.497659 16.364422 3.3271623 2
-11.530671 16.379625 2.1759198 2
-11.494264 16.385296 2.9186628 1.5
-11.536325 16.348021 3.2761154 1
-11.531356 16.372952 2.8045545 1
-11.50522 16.385902 3.1857586 1.5
-11.530649 16.380014 2.4806862 2
-11.537817 16.376711 2.8486028 1
-11.513147 16.38059 3.2294476 1
-11.512723 16.352921 3.0870545 2
-11.467896 16.392014 3.1045339 1
-11.527594 16.353327 2.7221732 2
-11.487078 16.401182 3.1138959 1
-11.530734 16.399679 2.2445903 1
-11.509382 16.404163 2.9910192 1
-11.504766 16.410931 2.984978 1.5
-11.534973 16.400986 1.9070402 1
-11.497989 16.409344 3.0301683 1.5
-11.516238 16.41004 1.987074 1
-11.498301 16.39781 3.1020858 2
-11.523066 16.396858 2.4166288 2
-11.535603 16.346632 2.770699 2
-11.500172 16.388077 3.1634541 1.5
-11.514203 16.464905 -0.34295732 69
-11.521247 16.350224 0.90268964 2
-11.477499 16.356821 1.095771 1
-11.451498 16.361597 1.4666058 1
-11.500637 16.361462 1.8214192 1.666667
-11.506669 16.353155 2.1854854 24.5
-11.477139 16.340408 2.5598407 4
-11.400752 16.36261 2.9507632 1.5
-11.522066 16.377871 1.0546221 1
-11.499807 16.398771 1.4243094 0
-11.468119 16.343744 2.1475849 1
-11.502485 16.343822 2.5116 20
-11.481585 16.316292 -0.40221059 46
-11.527912 16.451351 3.0285165 1
-11.509823 16.328516 2.4005938 1.25
-11.495347 16.337906 2.9435401 1.5
-11.527587 16.325453 1.9173197 2
-11.494146 16.484835 2.3063989 1
-11.502591 16.433813 2.6432779 5
-11.501146 16.429438 2.9951377 1.5
-11.522146 16.430651 1.8123128 1
-11.48618 16.420818 2.8399973 1
-11.523476 16.387411 3.1764851 1
-11.459702 16.415209 3.5366397 1
-11.496521 16.368654 2.5091708 4.5
-11.483529 16.371319 3.0222321 1.5
-11.464666 16.379417 3.3709164 1.5
-11.5151 16.396957 2.309618 1
-11.508795 16.396452 2.6508682 2
-11.501701 16.394169 2.9910429 1
-11.493151 16.393785 3.3368895 2
-11.540882 16.362465 3.3266797 1
-11.526787 16.367674 2.2930183 2
-11.499518 16.396114 2.6377277 1.5
-11.515407 16.383516 2.9710855 1.333333
-11.523108 16.359547 3.3074453 1.5
-11.505594 16.333847 2.956619 2
-11.507215 16.354595 3.2980053 1.333333
-11.513212 16.353498 2.8850441 1
-11.516384 16.344252 3.2193513 1.333333
-11.526834 16.359739 3.0467196 0.5
-11.466831 16.36174 2.9637258 1
-11.505564 16.317713 3.2759039 1.333333
-11.501699 16.323282 3.6051137 1.333333
-11.464025 16.315704 3.9391863 1.5
-11.460525 16.319582 4.273592 1
-11.426483 16.326536 4.6170416 1
-11.519728 16.32304 3.1164908 2
-11.499578 16.342554 3.4464781 1
-11.496283 16.335499 3.7718441 1.5
-11.495603 16.332932 4.103456 1.5
-11.479512 16.332235 4.6064892 1.25
-11.526169 16.341148 4.7744365 1
-11.513168 16.376261 1.6577818 0
-11.487085 16.294706 3.2434034 2
-11.462928 16.309389 3.5772896 1.5
-11.510991 16.336487 2.764293 1
-11.536389 16.317343 3.0749509 1.5
-11.489742 16.34547 3.4070976 1
-11.474826 16.334044 3.8947866 1.25
-11.462639 16.33732 4.3914795 1
-11.425938 16.399502 4.4128237 0
-11.52716 16.317688 3.0663264 1.333333
-11.472247 16.334402 3.5537353 0.75
-11.460943 16.317026 4.035306 1.5
-11.47591 16.343456 2.6841621 1
-11.46913 16.333332 2.9989235 1
-11.41296 16.317627 4.12537 0.5
-11.460238 16.288633 4.1122608 2
-11.407001 16.298061 4.6139221 1
-11.525868 16.325872 3.5246575 2
-11.499578 16.342886 4.0168843 1.25
-11.492535 16.334959 4.5061841 1
-11.4436 16.356606 4.5190763 0
-11.495576 16.349249 2.4497986 5
-11.49782 16.349049 2.9214904 1.25
-11.441655 16.340637 3.4057813 1
-11.481304 16.331896 3.7163274 1.5
-11.440717 16.338469 4.0472498 1.5
-11.429534 16.321056 4.5367613 1
-11.451662 16.33622 5.0380731 1
-11.52471 16.319708 2.9093177 1.5
-11.5177 16.30349 3.2245297 2
-11.473034 16.318026 3.7199671 1
-11.429129 16.328899 4.2209024 1
-11.423231 16.327799 4.554131 0.5
-11.459257 16.287371 4.0860248 1
-11.513669 16.329348 3.8916702 2
-11.459622 16.324232 3.9008863 1
-11.426947 16.350748 4.2361917 0
-11.492769 16.323574 4.5443039 1
-11.436318 16.368387 5.2758698 5.5
-11.393155 16.340422 4.4994149 1
-11.407201 16.323959 4.8231263 1
-11.529457 16.336464 2.7668867 2
-11.494678 16.35272 3.0912976 1
-11.513986 16.331722 3.3975911 2
