# .PCD v0.7 - Point Cloud Data file format
VERSION 0.7
FIELDS x y z intensity
SIZE 4 4 4 4
TYPE F F F F
COUNT 1 1 1 1
WIDTH 687
HEIGHT 1
VIEWPOINT 0 0 0 1 0 0 0
POINTS 687
DATA ascii
-43.46756 -12.607006 -0.29583979 12
-43.507195 -12.528874 -0.20435083 29
-43.374653 -12.587635 -0.4422065 12
-43.443756 -12.621835 -0.40517515 6
-43.499321 -12.536681 -0.31253731 25
-43.439602 -12.606625 -0.18621832 33
-43.521095 -12.535115 0.29958159 41
-43.420052 -12.52544 -0.25339007 30
-43.508705 -12.52816 -0.24161422 33
-43.475437 -12.53359 0.32854331 255
-43.486675 -12.531388 -0.31486505 32
-43.469223 -12.535271 -0.3027783 13
-43.377487 -12.552547 -0.35394514 31
-43.387581 -12.571393 -0.33696473 23
-43.446514 -12.64728 -0.12558073 32
-43.403976 -12.567327 -0.35118097 29
-43.412876 -12.590681 -0.1433056 21
-43.370007 -12.564936 -0.067972362 83
-43.446678 -12.531817 -0.35513902 26
-43.46838 -12.565969 -0.15668297 27
-43.433022 -12.533984 0.047577739 255
-43.432373 -12.547317 -0.3954711 19
-43.457966 -12.559751 -0.0010144101 211
-43.478157 -12.521223 0.19045359 32
-43.48558 -12.594355 -0.00021796999 77
-43.468071 -12.567131 0.19345808 255
-43.385006 -12.595165 -0.25265598 12
-43.394943 -12.603388 -0.065820687 102
-43.392094 -12.570482 0.21331441 145.5
-43.475315 -12.537336 -0.23526025 30
-43.463161 -12.523542 0.13619119 255
-43.49699 -12.51775 0.31410897 72
-43.479343 -12.51656 -0.20508838 31
-43.505013 -12.637252 0.15141612 152
-43.514027 -12.608865 0.32967192 255
-43.440643 -12.531614 -0.30160666 31
-43.457275 -12.525993 -0.12891185 32
-43.427578 -12.562731 0.047826529 255
-43.43858 -12.548784 0.22057927 255
-43.467419 -12.559654 -0.13916004 24
-43.456776 -12.618528 0.03404808 179
-43.451984 -12.574293 0.20554715 170
-43.427666 -12.586205 -0.31924224 11
-43.490593 -12.528861 -0.038224582 255
-43.365719 -12.563302 0.12718228 0
-43.486351 -12.54605 -0.24299908 19
-43.410534 -12.560054 0.03973949 0
-43.412056 -12.528564 -0.39704722 0
-43.436726 -12.501013 0.00132304 0
-43.442955 -12.516222 0.13075048 0
-43.495598 -12.565527 -0.33989668 0
-43.467545 -12.538694 0.13792366 151
-43.497482 -12.642517 -0.20108807 21
-43.369137 -12.545919 0.033117771 0
-43.45771 -12.503236 0.0083385101 97
-43.461987 -12.508257 0.13727301 255
-43.441902 -12.514919 0.27079183 93
-43.496986 -12.582559 -0.34555471 0
-43.513531 -12.537382 -0.14016044 10
-43.460522 -12.545831 0.065458357 9
-43.494717 -12.538881 0.19132945 42
-43.449944 -12.56653 -0.38022757 2
-43.505962 -12.567774 -0.25648725 25
-43.480816 -12.541294 0.01640326 255
-43.421589 -12.577745 0.15272468 30
-43.465588 -12.547016 0.28024521 255
-43.500645 -12.608912 -0.27337509 0
-43.486252 -12.526676 0.080734067 228.5
-43.439182 -12.560023 -0.37077993 1
-43.49688 -12.559444 -0.24354273 21
-43.439056 -12.541775 0.035523951 12
-43.447975 -12.534895 0.16845036 16
-43.446342 -12.546822 0.29894868 22
-43.463001 -12.528265 -0.038321611 58
-43.469666 -12.530973 0.094240963 203
-43.526962 -12.544521 -0.39113528 4
-43.491909 -12.522573 -0.42253381 0
-43.444283 -12.484446 -0.41801006 0
-43.502544 -12.532659 -0.28454375 11
-43.49239 -12.61018 0.3118076 0
-43.434845 -12.699206 -0.44717199 6
-43.402393 -12.562286 -0.083680391 5
-43.439377 -12.645878 0.18020594 255
-43.511166 -12.611862 0.21281308 19
-43.465012 -12.597613 -0.35300875 27
-43.532719 -12.614342 -0.32090688 30
-43.44241 -12.593443 -0.31915593 35
-43.431396 -12.578657 0.28106856 255
-43.432945 -12.624256 -0.30970865 12
-43.360844 -12.539991 0.37822413 43
-43.487408 -12.583357 -0.24751711 30
-43.44883 -12.592028 0.41944587 44
-43.408859 -12.601467 -0.28031951 35
-43.418041 -12.592607 -0.36042279 23
-43.553051 -12.616367 0.40716082 25
-43.445606 -12.601241 -0.45878899 23
-43.546181 -12.607872 -0.27911007 23
-43.380611 -12.573463 -0.13500953 29
-43.495731 -12.555603 0.048615161 255
-43.559364 -12.643282 0.16416037 60
-43.384377 -12.564698 0.01072758 255
-43.395748 -12.536961 0.21714491 124
-43.447029 -12.571355 -0.081001878 48
-43.481625 -12.678063 0.12484092 67
-43.453953 -12.540075 0.32492733 31
-43.515903 -12.60985 -0.086018443 72
-43.49091 -12.588778 0.11651677 145
-43.479813 -12.571686 -0.25027949 28
-43.483532 -12.578614 -0.05320799 28
-43.45575 -12.600945 0.15040612 255
-43.474991 -12.571422 0.34228319 69
-43.458763 -12.585024 -0.16677839 11
-43.474712 -12.544313 0.11725491 217.5
-43.422005 -12.585383 -0.35247284 26
-43.446373 -12.635765 -0.073289096 55
-43.497875 -12.570848 -0.39191943 15
-43.410721 -12.536661 0.45078373 7
-43.517628 -12.536667 0.22144139 138
-43.394062 -12.561296 -0.27911979 22
-43.456299 -12.539169 -0.3256557 16
-43.463783 -12.51302 0.07686919 127
-43.502834 -12.542544 -0.31725693 16
-43.518826 -12.529949 0.34094405 141
-43.378372 -12.552357 -0.34570545 15
-43.420433 -12.534739 -0.21560973 28
-43.371983 -12.526217 0.31327492 44
-43.484417 -12.555334 -0.38057566 23
-43.49585 -12.535512 -0.050299112 255
-43.479736 -12.537006 0.14774472 255
-43.514042 -12.525501 0.32560033 255
-43.466133 -12.545931 -0.30577654 8
-43.481464 -12.516814 -0.03332597 255
-43.440605 -12.545518 0.10105842 29
-43.48185 -12.513924 0.23343182 255
-43.508808 -12.530935 -0.34335971 6
-43.522095 -12.537379 0.20590627 25
-43.493423 -12.52542 -0.43436372 10
-43.510162 -12.525161 -0.21273768 10
-43.511078 -12.553165 -0.40410137 11
-43.527657 -12.595938 0.30394134 20
-43.522636 -12.538411 -0.33471078 12
-43.571712 -12.637349 -0.25013798 10
-43.50856 -12.518717 -0.26687706 5
-43.534664 -12.63544 -0.27130717 4
-43.549438 -12.600163 -0.28760874 11
-43.47789 -12.49699 0.38513923 15
-43.409763 -12.522903 0.32327217 18
-43.493122 -12.622761 0.38636833 37
-43.380474 -12.51265 0.23637536 98
-43.375347 -12.519679 -0.21513243 3
-43.461689 -12.549069 -0.32687795 28
-43.406853 -12.52677 -0.11906006 255
-43.49789 -12.538126 -0.18297362 45.5
-43.467415 -12.55884 -0.17111428 25
-43.375206 -12.563842 0.02584113 255
-43.413544 -12.541852 0.12411979 252
-43.433636 -12.525088 -0.42024064 19
-43.365974 -12.544792 0.19782591 255
-43.552227 -12.598825 -0.037693709 184
-43.387615 -12.526749 -0.19345157 41
-43.435776 -12.535396 -0.42171091 15
-43.478638 -12.632573 -0.02218214 162.5
-43.442867 -12.572031 -0.25131392 31
-43.411282 -12.580368 -0.43454215 16
-43.400703 -12.53696 0.20535329 255
-43.455856 -12.558783 -0.30482209 33
-43.422138 -12.550968 -0.074010096 255
-43.346153 -12.523452 0.1039407 255
-43.449699 -12.566823 0.32151866 255
-43.479725 -12.542676 -0.43210191 27
-43.47707 -12.6578 -0.4258644 2
-43.387245 -12.519608 0.14216158 155.5
-43.396217 -12.54584 -0.32912293 32
-43.517033 -12.569358 0.26744804 61.333332
-43.50919 -12.547763 -0.48313513 7
-43.377365 -12.547159 0.31549132 78
-43.468864 -12.559261 -0.32553542 9
-43.485317 -12.598516 -0.19880107 39
-43.472763 -12.543105 -0.54769289 14.5
-43.555737 -12.622771 -0.04386827 156.5
-43.419273 -12.543259 -0.46084124 29
-43.454483 -12.52688 -0.10527441 255
-43.495754 -12.533438 -0.39469123 29
-43.543648 -12.623056 0.12804222 108
-43.423088 -12.562889 -0.088659972 34
-43.501377 -12.633359 0.21669948 44
-43.413795 -12.531055 -0.16806957 30
-43.488495 -12.520807 0.23462909 255
-43.436127 -12.559185 -0.24450266 58
-43.452522 -12.539256 -0.38893241 15
-43.413242 -12.533598 0.099499762 76
-43.458344 -12.566352 -0.16380349 31
-43.443626 -12.684356 -0.42477715 2
-43.460712 -12.518209 -0.47449082 14.5
-43.524326 -12.632557 0.0041312599 103
-43.458046 -12.57 0.099799387 92
-43.497635 -12.514513 -0.05423373 255
-43.475315 -12.593686 -0.05178469 241
-43.425003 -12.61429 0.0781793 168
-43.421509 -12.563099 -0.330706 25
-43.500519 -12.56735 0.10630679 78
-43.410004 -12.525156 0.10760307 255
-43.466988 -12.57374 -0.088140428 255
-43.445984 -12.520188 -0.10486227 255
-43.528595 -12.645114 -0.099754393 104
-43.416821 -12.519126 -0.22253835 18
-43.392963 -12.542837 0.21182889 255
-43.448441 -12.516341 -0.29268807 16
-43.545433 -12.571688 -0.22392738 35
-43.421589 -12.523251 -0.12187898 53.333332
-43.394341 -12.538182 -0.035072088 255
-43.400047 -12.5354 -0.30145472 25
-43.380791 -12.546144 0.10947096 255
-43.494583 -12.525438 -0.24969262 25.5
-43.439838 -12.539968 0.16571814 255
-43.473103 -12.542064 -0.29898378 29
-43.462471 -12.533297 0.081660539 255
-43.490116 -12.639651 -0.035907209 98
-43.462608 -12.491211 -0.041647792 154.5
-43.564362 -12.609512 -0.15552193 49.5
-43.48175 -12.497931 0.12187546 167.5
-43.505806 -12.508188 -0.15794057 29
-43.469215 -12.588762 0.19743925 84
-43.516739 -12.526684 0.02780485 57
-43.522545 -12.561968 -0.23916447 25
-43.406807 -12.549038 -0.35474592 28
-43.438469 -12.550896 -0.03233153 148
-43.495369 -12.551495 0.28981048 32.25
-43.49181 -12.575145 -0.19327575 14
-43.510651 -12.538158 -0.23270941 27
-43.425598 -12.597961 -0.08130908 27.5
-43.477837 -12.603183 0.23051679 62
-43.433861 -12.50346 -0.19144487 27
-43.447807 -12.555113 0.11879373 129.33333
-43.4571 -12.48564 -0.31464732 23.5
-43.460369 -12.622013 0.097273469 95.25
-43.377144 -12.532116 -0.40282953 24
-43.375107 -12.552141 -0.10734141 38
-43.373657 -12.541134 0.18308103 197.5
-43.390717 -12.56728 -0.24668694 11
-43.491417 -12.575296 0.17923689 100.70834
-43.491776 -12.509829 -0.12459636 90.25
-43.495781 -12.580479 -0.23576498 10
-43.489094 -12.528873 -0.17598635 88.25
-43.462753 -12.535585 -0.0332647 255
-43.465736 -12.528426 0.24622387 255
-43.385639 -12.550833 -0.31038749 37
-43.413498 -12.530227 0.10060132 47.375
-43.384159 -12.524967 -0.04727757 117.29166
-43.458893 -12.544537 0.35324216 31
-43.421684 -12.558378 -0.29570943 38
-43.463863 -12.548168 0.10061353 41.833332
-43.461876 -12.593865 -0.37544602 17.5
-43.448097 -12.521615 -0.076952338 40.833336
-43.468204 -12.508663 0.30865705 54
-43.437798 -12.66437 -0.17315984 24.666666
-43.450043 -12.619387 0.33946383 60
-43.437462 -12.602028 -0.35920215 17
-43.424259 -12.497555 0.01848137 100.175
-43.457222 -12.489578 0.39386225 28.666666
-43.4245 -12.555784 -0.23426461 14
-43.430458 -12.55292 0.26420271 49
-43.522285 -12.539598 -0.17540711 133.5
-43.373611 -12.560294 -0.27462417 20
-43.363358 -12.541484 0.082754433 255
-43.382027 -12.52825 -0.12236053 103.41666
-43.371185 -12.530972 0.23195356 255
-43.423042 -12.543403 -0.17129093 22
-43.447979 -12.495009 0.15691113 156.16666
-43.39481 -12.530337 -0.19318879 22
-43.377022 -12.529289 0.13683468 137.33334
-43.408989 -12.53854 -0.34121203 35
-43.443008 -12.488079 -0.024461331 107.425
-43.449455 -12.482054 0.29766935 133
-43.417992 -12.532673 -0.12886387 106.3
-43.441669 -12.55015 0.18917286 123.25
-43.506504 -12.524477 -0.28138548 25.5
-43.466446 -12.502221 -0.050805271 58.583336
-43.40646 -12.529976 0.26994705 255
-43.388924 -12.550652 -0.27485698 26
-43.441307 -12.514862 0.019724671 100.875
-43.446289 -12.541967 0.32641745 67.666664
-43.488556 -12.488197 0.13663405 164
-43.477123 -12.522747 -0.30717903 23.375
-43.513592 -12.527654 0.085235603 146
-43.380543 -12.533736 -0.40946662 8
-43.422249 -12.562906 -0.26163834 28.5
-43.486053 -12.532297 0.10007262 115.5
-43.409359 -12.540277 0.11429077 255
-43.476696 -12.514513 -0.2186026 27
-43.48838 -12.5131 0.1274851 213.25
-43.533424 -12.553474 -0.23461413 42.75
-43.483704 -12.547295 -0.22762287 32.5
-43.490154 -12.526018 0.11378455 255
-43.451248 -12.592476 -0.33149058 20.145832
-43.48447 -12.542791 0.0044183098 170.39999
-43.483418 -12.560295 0.25916034 222.60001
-43.422642 -12.570076 -0.43933058 18.5
-43.408367 -12.630869 -0.43711388 15
-43.474545 -12.579136 -0.19655174 55.666668
-43.440247 -12.583277 -0.10664952 94
-43.506798 -12.5359 0.13217854 183
-43.439323 -12.579912 0.14451486 255
-43.486649 -12.622705 -0.3173247 12.25
-43.482338 -12.556126 -0.062933862 107.5
-43.464813 -12.518064 0.27121115 217.875
-43.420914 -12.566108 -0.37216955 14.833333
-43.467628 -12.544193 0.18768698 135
-43.500969 -12.574751 -0.17396665 4
-43.5513 -12.629946 0.1388008 55
-43.448734 -12.497955 0.15548402 46.75
-43.424137 -12.589212 0.032708641 52.75
-43.422825 -12.550051 0.25831324 255
-43.395496 -12.55365 0.26262188 160
-43.498425 -12.525099 -0.38016611 18.111111
-43.502998 -12.575829 0.023512069 60.333332
-43.54105 -12.629684 0.29768944 63
-43.465775 -12.629244 -0.33205539 18.5
-43.575958 -12.623438 -0.078578167 63.533337
-43.450409 -12.586815 -0.035935041 60.440475
-43.491703 -12.624359 0.29579404 61.416668
-43.440582 -12.512451 -0.28222507 20.116667
-43.405205 -12.597942 -0.29620993 15.185185
-43.417873 -12.671053 -0.29753834 9.7777777
-43.471645 -12.530052 0.1052196 129.81111
-43.382999 -12.554203 0.25630325 0
-43.498531 -12.558745 -0.24764746 18.388887
-43.534454 -12.605701 0.13961548 79.44445
-43.430454 -12.541478 0.23450798 1.25
-43.443497 -12.483254 -0.3968913 3.25
-43.506916 -12.542034 -0.47242332 5.5
-43.502529 -12.536136 -0.13484257 100.33334
-43.512539 -12.52596 0.19381782 240.875
-43.482037 -12.587776 -0.38962573 12.571428
-43.376945 -12.551395 -0.36287683 18
-43.386024 -12.553757 -0.10203385 9.833333
-43.455784 -12.555585 0.27477336 3.333333
-43.478249 -12.522327 0.00086169998 84.666664
-43.501991 -12.512833 0.25956059 192
-43.468304 -12.56366 -0.3366276 2.5
-43.518742 -12.543173 -0.0108003 20.833332
-43.473019 -12.550642 0.32430914 26
-43.483959 -12.586191 -0.32324374 8.9761906
-43.518307 -12.555301 0.0072725401 171.15556
-43.467171 -12.556467 -0.37351304 2
-43.489464 -12.513594 -0.099184811 27.966667
-43.479214 -12.607451 -0.3297323 0
-43.408882 -12.540936 -0.42375439 0
-43.517075 -12.585464 -0.2517184 0
-43.547741 -12.580053 -0.1491102 81.166664
-43.445816 -12.610115 -0.33748662 16.799999
-43.533089 -12.588873 -0.1680572 0.83333302
-43.520081 -12.619167 0.073893793 1
-43.500141 -12.506199 -0.31139606 11.083333
-43.513474 -12.620156 -0.42634922 5
-43.529556 -12.627915 0.13119465 255
-43.528816 -12.612002 -0.35338712 19.5
-43.544155 -12.592066 -0.0205152 122.5
-43.528625 -12.618483 0.30381823 19
-43.536484 -12.580076 0.30698371 24
-43.394653 -12.586401 -0.39101106 2.5
-43.539169 -12.60947 -0.27250308 19
-43.541832 -12.580294 -0.35731816 12
-43.518486 -12.564107 -0.29928833 18
-43.501408 -12.584181 -0.29104441 11.5
-43.524807 -12.625422 -0.36943507 21
-43.475021 -12.665661 -0.38002062 9
-43.518364 -12.528629 -0.20171869 8.5
-43.454754 -12.632381 -0.26160473 15
-43.504856 -12.58748 -0.25186437 9
-43.519718 -12.558741 0.22990644 150.5
-43.471645 -12.599659 -0.24190915 8.5
-43.558601 -12.63254 0.16782176 105.66666
-43.561623 -12.611746 0.1369983 111
-43.523769 -12.584885 -0.01572031 7
-43.522461 -12.617203 -0.11017072 5
-43.57151 -12.621368 -0.073196411 159
-43.551052 -12.603607 -0.3357681 3
-43.494221 -12.654984 0.11474746 255
-43.552662 -12.585537 0.26706797 73
-43.534504 -12.628357 -0.059013899 239
-43.512856 -12.597225 -0.1669209 1
-43.508259 -12.628891 -0.3636927 11
-43.546188 -12.610714 -0.31521767 24
-43.485397 -12.631508 0.30596268 255
-43.569599 -12.617233 0.25833631 255
-43.517021 -12.621639 0.04995406 255
-43.420258 -12.597694 0.17795008 255
-43.473362 -12.587898 0.34192443 255
-43.418083 -12.602253 -0.045191761 255
-43.557247 -12.591106 -0.27809542 22
-43.47892 -12.559799 -0.13688713 12
-43.471676 -12.547314 -0.12841636 12
-43.456123 -12.587467 -0.081047297 37
-43.542419 -12.641964 0.0096444497 255
-43.553249 -12.610088 0.28823411 124
-43.469074 -12.627205 -0.084346287 111
-43.497829 -12.583447 -0.35892338 12.5
-43.519337 -12.605953 -0.37637186 2
-43.559792 -12.614365 0.14299607 255
-43.533913 -12.635971 0.10613483 255
-43.522694 -12.612144 0.23664081 255
-43.528519 -12.59996 -0.40180373 6
-43.517017 -12.637791 -0.37358195 18
-43.465664 -12.661026 -0.41145819 7.5
-43.48193 -12.623554 -0.073375881 168
-43.551807 -12.615387 -0.29943043 15
-43.453732 -12.681812 -0.43163419 8.5
-43.496239 -12.623035 0.3392415 255
-43.523384 -12.624691 -0.35007149 22
-43.520287 -12.610016 0.30488044 62
-43.462742 -12.617428 -0.33798909 8
-43.492722 -12.617889 0.13852084 254
-43.466927 -12.55365 -0.21241152 12.5
-43.549225 -12.637161 -0.10738546 255
-43.495396 -12.630127 -0.30161262 25
-43.472946 -12.635868 -0.22213072 29
-43.476006 -12.578831 -0.18779641 24
-43.423985 -12.623493 0.21721876 46
-43.464294 -12.55088 -0.27690792 54
-43.554535 -12.591106 -0.12575144 33
-43.451271 -12.649052 0.15342826 251
-43.431732 -12.624107 -0.28785264 7
-43.4617 -12.609016 -0.20498174 21
-43.377415 -12.553265 0.00436866 135
-43.400276 -12.632576 -0.2811082 20
-43.552357 -12.619942 0.26891023 167.5
-43.419853 -12.648376 0.01284564 255
-43.435886 -12.677895 0.18071216 31.5
-43.473122 -12.638481 0.018649099 255
-43.446568 -12.646904 -0.38097757 17
-43.388924 -12.602482 0.27668041 155
-43.416649 -12.581978 0.21437401 19
-43.557724 -12.639 -0.20882463 19
-43.550518 -12.619381 -0.1303792 20
-43.486927 -12.616531 -0.31357729 24
-43.369492 -12.56181 -0.10088623 7
-43.489475 -12.624866 -0.06216896 255
-43.402756 -12.602722 -0.25770462 8.5
-43.426037 -12.629784 0.11903411 255
-43.452461 -12.63343 0.2036038 30
-43.479683 -12.678528 0.12512124 8
-43.388126 -12.562138 0.17709529 2
-43.395569 -12.585434 0.11190718 9.5
-43.479939 -12.668404 -0.36004448 9
-43.399376 -12.562927 -0.35160756 5
-43.516342 -12.631153 -0.3152101 7
-43.508717 -12.649143 -0.48979294 21
-43.552879 -12.607048 -0.10731459 2
-43.502975 -12.644199 0.23998618 189
-43.47673 -12.567249 0.16286463 58
-43.485603 -12.589737 0.27871192 24
-43.463173 -12.568214 0.1058439 255
-43.49865 -12.617645 0.27096713 22
-43.553085 -12.632347 0.072926641 4
-43.547432 -12.618122 -0.28194761 3
-43.539047 -12.621365 0.25447869 11
-43.456799 -12.689009 -0.40070921 3
-43.387794 -12.525967 0.0028719299 94
-43.402775 -12.61927 -0.023298319 255
-43.445362 -12.640917 -0.47987559 4
-43.471729 -12.634005 -0.40408415 16
-43.41394 -12.513367 0.190239 72
-43.542786 -12.626671 0.1978763 14
-43.492538 -12.552254 0.38126534 17
-43.49456 -12.510153 0.26406634 15.5
-43.403931 -12.636501 0.12517971 255
-43.458984 -12.588493 -0.0024784999 22
-43.523598 -12.657993 -0.19725008 6
-43.529026 -12.625652 0.42195177 4
-43.502186 -12.642227 0.043287829 6
-43.459164 -12.637083 -0.049080011 68.5
-43.35891 -12.531504 0.19967248 167
-43.359573 -12.559126 0.1203925 255
-43.388935 -12.551687 -0.12955333 6
-43.36628 -12.557468 0.32865599 106
-43.382641 -12.59502 -0.13619015 9
-43.499008 -12.635244 0.42685372 15
-43.509239 -12.623228 0.28204864 18
-43.477043 -12.57604 -0.01596136 17
-43.430256 -12.501127 0.24368793 44
-43.431404 -12.485056 0.44766206 74
-43.489574 -12.520964 0.088291124 46
-43.417114 -12.537051 -0.13852108 38
-43.434193 -12.675866 -0.39443803 3
-43.476051 -12.577094 0.41186702 73
-43.426109 -12.665251 0.17541692 36
-43.422153 -12.652689 -0.026790161 255
-43.429382 -12.658169 -0.47992656 1
-43.51326 -12.654076 -0.20244196 64
-43.43399 -12.53468 0.087172911 28
-43.480869 -12.652758 0.10194026 255
-43.474155 -12.600912 0.051006321 217
-43.491215 -12.59174 0.25010073 174.5
-43.459927 -12.622355 0.25502533 23
-43.514179 -12.539639 -0.060178518 103
-43.490639 -12.663142 0.4163408 35
-43.499195 -12.604521 0.22220695 157
-43.452026 -12.619328 -0.29726648 6
-43.444572 -12.631775 0.50639808 33
-43.516357 -12.635056 -0.086867809 26
-43.397976 -12.540653 0.19890094 135.5
-43.516403 -12.629951 0.28326964 57
-43.498421 -12.666611 0.07057941 21
-43.457565 -12.645842 0.35616964 174.5
-43.408455 -12.527946 0.35591507 36.5
-43.466255 -12.574514 0.55275953 104
-43.509163 -12.64114 0.038993038 21
-43.543217 -12.633196 0.49425924 63
-43.376709 -12.587495 0.13775642 54
-43.459267 -12.606499 0.26017421 66
-43.372948 -12.576586 0.45675051 94
-43.470417 -12.679501 0.11666098 64
-43.442169 -12.666093 0.1087729 17
-43.369789 -12.567774 0.068826258 128.66667
-43.372532 -12.576959 -0.065830708 29.5
-43.41967 -12.550688 0.49720335 44
-43.549351 -12.624088 -0.2560091 28
-43.536575 -12.589108 0.29404211 178.5
-43.400322 -12.510156 0.13853389 83
-43.46735 -12.640251 0.11307657 255
-43.362572 -12.550489 0.37416899 108
-43.449017 -12.65553 -0.20810473 10.5
-43.419704 -12.639576 0.3014487 255
-43.410469 -12.589101 -0.091597378 21.5
-43.466171 -12.655764 -0.28348789 26
-43.433815 -12.61791 0.0272446 54.5
-43.453873 -12.639719 0.51244926 40
-43.425018 -12.515257 0.42731971 51
-43.416786 -12.557578 -0.44471586 12
-43.456623 -12.528863 0.23007035 87
-43.473785 -12.5775 -0.25661027 5
-43.418053 -12.639485 -0.24509132 23
-43.443726 -12.588691 0.20778763 172
-43.484802 -12.625165 -0.12972319 241
-43.369293 -12.540676 -0.015628871 63
-43.420105 -12.652084 -0.12894094 14
-43.401855 -12.585893 0.30314553 255
-43.474045 -12.472195 0.22729731 122.5
-43.411835 -12.521132 0.47735414 70
-43.546219 -12.604671 -0.30552828 16
-43.509014 -12.667162 -0.29955161 10
-43.457947 -12.554286 0.49931893 44.5
-43.493057 -12.595421 -0.14542651 15.5
-43.468178 -12.610237 0.24898887 201.5
-43.434139 -12.573934 -0.29439199 11
-43.37661 -12.582351 0.083075397 255
-43.446838 -12.521283 0.44788754 30
-43.459755 -12.618128 0.033628881 139.66667
-43.529457 -12.58889 0.39422911 23.5
-43.391838 -12.58668 -0.17503703 112
-43.503036 -12.548499 -0.36239481 14
-43.466545 -12.579008 0.00149441 255
-43.431755 -12.515172 0.3065654 73
-43.376495 -12.520906 -0.31657892 16
-43.43705 -12.552047 0.01515549 94.5
-43.488056 -12.504389 0.34352463 82
-43.482075 -12.63836 0.35608095 68
-43.393349 -12.575123 -0.46372357 18
-43.386482 -12.579454 0.03002104 170.33334
-43.456779 -12.595066 -0.16209996 27
-43.503342 -12.534073 0.15444982 129.66667
-43.429688 -12.619598 0.16198432 255
-43.406811 -12.596931 -0.23463005 20
-43.409851 -12.556332 0.078787148 164.75
-43.489922 -12.563587 0.39029437 3.5
-43.540005 -12.5819 0.30485082 143
-43.488899 -12.562216 -0.32557535 13
-43.442463 -12.624126 -0.01730418 125
-43.460117 -12.58009 -0.31395584 34
-43.489967 -12.535126 -0.02352077 161.25
-43.477516 -12.56205 0.27248257 120.25
-43.54007 -12.598625 0.1919229 255
-43.365742 -12.554485 0.091400862 36
-43.535484 -12.560942 -0.25471783 9
-43.439354 -12.561368 0.01365912 92
-43.425888 -12.642351 0.25144404 16
-43.487705 -12.536346 -0.24414295 19.799999
-43.436562 -12.563698 0.15580255 194.66667
-43.497723 -12.533574 -0.086826682 114
-43.36763 -12.556297 -0.29213619 25
-43.393478 -12.545763 0.21964526 146
-43.523659 -12.5483 -0.026717899 255
-43.519867 -12.551254 0.21025288 255
-43.480202 -12.490295 -0.26653498 26.071428
-43.384232 -12.50977 -0.13775414 42
-43.395439 -12.526652 0.19803816 121.16666
-43.510559 -12.558025 -0.17263818 27
-43.52272 -12.541491 0.26338971 32
-43.398399 -12.565322 -0.20048648 24
-43.458542 -12.506037 0.10307813 111.83334
-43.572624 -12.624969 0.41160184 67.333336
-43.443726 -12.558897 -0.2855801 29
-43.481529 -12.511736 0.01279956 126.75
-43.547382 -12.614535 0.31740135 60.666668
-43.535484 -12.567172 -0.29037958 19.666666
-43.506699 -12.549997 -0.25624734 24
-43.46394 -12.485641 -0.26320201 19.535713
-43.475063 -12.622005 -0.36160392 18.666666
-43.4739 -12.584558 0.01442587 103.25
-43.363312 -12.569763 -0.31400526 21
-43.375626 -12.548038 -0.052240249 96.916664
-43.460213 -12.565632 0.28726906 54.525002
-43.535645 -12.565863 -0.1368736 22.5
-43.376419 -12.511698 -0.34077561 20.5
-43.35429 -12.524708 -0.019791899 190
-43.36021 -12.520039 0.2177912 255
-43.432468 -12.580391 -0.37234074 16.200001
-43.458813 -12.579523 -0.25050259 19.611111
-43.547764 -12.58148 0.075484402 145.8889
-43.496529 -12.540636 0.3608675 255
-43.441196 -12.515336 0.1204375 33.049999
-43.436367 -12.510525 0.38617113 38.666668
-43.479935 -12.578741 -0.096557923 47.088886
-43.392982 -12.537334 -0.01560527 70.25
-43.422665 -12.515882 0.24323338 175.25
-43.400101 -12.615672 -0.40208107 3.833333
-43.515491 -12.554161 -0.38473696 22.88492
-43.541363 -12.568577 0.00555587 179.33333
-43.440624 -12.579123 -0.33132517 3.1428571
-43.498901 -12.538897 -0.27709794 6.75
-43.526844 -12.546162 0.090064824 209.1389
-43.477467 -12.603771 -0.35755432 6
-43.51049 -12.573315 -0.37674797 16.583332
-43.488922 -12.643267 -0.4229641 10.142858
-43.528 -12.577284 -0.1931929 27.25
-43.543381 -12.602875 0.04713333 14
-43.567059 -12.61372 -0.29836178 12
-43.523899 -12.559264 -0.20993829 4.875
-43.5424 -12.614221 -0.26596028 6
-43.504143 -12.517052 -0.32112384 1.6
-43.530884 -12.632023 0.099043071 19.5
-43.516777 -12.595976 -0.27853769 0
-43.535614 -12.554703 0.14934409 0
-43.484856 -12.562946 0.25402504 174.5
-43.418041 -12.56881 -0.037381291 135.5
-43.384243 -12.575817 0.31457216 1
-43.559502 -12.645081 -0.40370679 5
-43.557747 -12.616039 0.11745477 255
-43.56945 -12.620792 0.040412191 164
-43.552414 -12.611866 0.1476658 230
-43.543598 -12.57729 0.11541879 42
-43.518169 -12.601154 -0.1607855 32
-43.464146 -12.673145 0.11823559 255
-43.484138 -12.608238 -0.34813994 1
-43.531219 -12.639019 0.14840573 255
-43.504623 -12.607471 -0.10430682 68
-43.479042 -12.673904 -0.13193274 28.666666
-43.532391 -12.639702 -0.15699792 155
-43.547657 -12.634712 0.43021947 23
-43.526062 -12.650444 -0.087010257 255
-43.418724 -12.649067 -0.43876982 9
-43.490646 -12.632652 -0.04367936 152.5
-43.483368 -12.610886 -0.13850069 17
-43.530563 -12.651798 -0.36853957 23
-43.387348 -12.608105 -0.29949999 4
-43.516052 -12.637932 -0.09700942 12.5
-43.404831 -12.622818 0.036972281 62
-43.41592 -12.523182 -0.06004563 14
-43.437134 -12.682103 -0.077422082 204
-43.463112 -12.565881 0.27113956 39
-43.505764 -12.537478 0.16062889 67
-43.439541 -12.569059 -0.42889225 17
-43.41296 -12.626198 -0.27797431 5.5
-43.370644 -12.524269 -0.47700986 1
-43.41135 -12.579173 0.23661365 255
-43.40387 -12.547023 0.13333525 255
-43.385056 -12.595787 -0.39329711 4
-43.45966 -12.607509 -0.39032578 10
-43.434586 -12.601035 -0.30399656 1
-43.417583 -12.57328 0.37734869 65
-43.455151 -12.584164 0.1221526 42.5
-43.537193 -12.559164 0.30677772 67
-43.423874 -12.490513 0.29852694 38
-43.500256 -12.624862 0.091412507 137.5
-43.463741 -12.545677 -0.20405385 12
-43.383419 -12.575769 0.16924396 255
-43.477036 -12.494708 -0.12468486 10
-43.526577 -12.600305 -0.050664831 26.5
-43.408566 -12.528188 0.14974174 92
-43.518917 -12.577635 0.0072542801 133.5
-43.4786 -12.520676 0.01175827 15
-43.395523 -12.523436 0.021394391 255
-43.475983 -12.598427 -0.0056413999 19
-43.453499 -12.488562 -0.12310583 21
-43.513691 -12.607912 0.04455404 140.5
-43.536694 -12.573225 -0.093413688 19.5
