# .PCD v0.7 - Point Cloud Data file format
VERSION 0.7
FIELDS x y z intensity
SIZE 4 4 4 4
TYPE F F F F
COUNT 1 1 1 1
WIDTH 1043
HEIGHT 1
VIEWPOINT 0 0 0 1 0 0 0
POINTS 1043
DATA ascii
-44.126041 -13.566601 -0.27402335 28
-44.029938 -13.495214 -0.32846424 77
-44.134708 -13.473042 -0.43834829 32
-44.115913 -13.531075 -0.02158183 45
-44.05883 -13.480015 -0.33288229 71
-44.097183 -13.590195 -0.25155091 14
-44.057991 -13.519861 -0.19123179 58
-44.073685 -13.553093 -0.24209559 17
-44.067085 -13.532419 -0.31595117 36
-44.08498 -13.54249 0.32940286 38
-44.044716 -13.505249 -0.22273397 63
-44.118179 -13.482765 -0.30468428 85
-44.169807 -13.495849 0.49103141 79
-44.078568 -13.551017 -0.32480937 14
-44.148605 -13.489816 0.44827431 72
-44.002567 -13.506344 -0.3139323 40
-44.019978 -13.519161 0.1885252 57
-44.139355 -13.493913 -0.37714338 22
-44.104954 -13.610983 -0.10003084 99
-44.036098 -13.520107 0.42130554 52
-44.030693 -13.54475 0.35609788 59
-44.067642 -13.530919 0.41252241 92
-44.134815 -13.498932 0.42435601 108
-44.103603 -13.461491 -0.15084076 23
-44.1119 -13.460863 0.24446508 144.5
-44.126652 -13.426849 -0.086347461 81
-44.093887 -13.444312 -0.29683632 84
-44.06813 -13.481807 -0.2379387 85
-44.082462 -13.499176 -0.23767066 19
-44.115814 -13.495708 -0.30068213 62
-44.152199 -13.53699 0.45016015 73
-44.121559 -13.489812 -0.27246249 31
-44.059078 -13.539392 0.49609184 33
-44.093136 -13.546909 -0.21134126 28
-44.075489 -13.463652 -0.25418633 82
-44.180992 -13.557739 -0.34176874 24
-44.07246 -13.483425 -0.25530189 75
-44.180416 -13.566463 -0.25339067 0
-44.0662 -13.522565 -0.083460808 2
-44.105934 -13.510962 0.13007581 18
-44.160713 -13.535275 0.47879836 18
-44.029758 -13.490753 -0.29073119 23
-44.098076 -13.48753 -0.15150881 35
-44.103718 -13.493708 -0.0063801999 34
-44.063507 -13.469936 -0.31255096 35
-44.137184 -13.448421 -0.17081207 68
-44.133686 -13.457865 -0.026722969 54
-44.114357 -13.473625 0.18990779 31.5
-44.126068 -13.457344 -0.071363032 35
-44.136509 -13.471804 0.28701842 34
-44.124424 -13.481356 0.50444198 1
-44.070248 -13.47642 -0.28521526 38
-44.129368 -13.502331 -0.077072017 63
-44.091572 -13.488229 0.14610589 44
-44.093586 -13.460936 0.36592019 43
-44.067276 -13.492132 -0.37142408 34
-44.178478 -13.556943 -0.24778962 28
-44.105606 -13.490195 -0.0099574896 44.5
-44.100052 -13.501278 0.20635524 38
-44.104004 -13.480175 -0.28876805 34
-44.140495 -13.475863 0.14512748 195
-44.085579 -13.506876 0.00051068998 26
-44.12854 -13.491652 0.28858489 60
-44.134033 -13.442509 0.43904459 46
-44.032707 -13.508003 -0.29836869 29
-44.140629 -13.574093 -0.17080027 52
-44.063637 -13.50371 0.065069199 64
-44.105209 -13.486591 0.28044358 142
-44.068001 -13.448896 0.43342471 39
-44.064693 -13.477215 -0.36896515 23
-44.127193 -13.477135 -0.22550237 64
-44.075176 -13.513457 -0.01046622 20.5
-44.111759 -13.481653 0.2088806 59
-44.064259 -13.533144 0.35161716 8
-44.172119 -13.480513 -0.32267815 88
-44.201683 -13.562663 -0.19400728 34
-44.147949 -13.470661 0.11847043 84
-44.123531 -13.498619 -0.02981895 24
-44.150948 -13.500462 -0.2612139 34
-44.144558 -13.523186 0.029345101 23
-44.174789 -13.497602 0.17685199 255
-44.135891 -13.546085 0.31952661 19
-44.140354 -13.511331 0.47126678 0
-44.199844 -13.528589 -0.057132602 18.5
-44.199596 -13.548738 0.30773291 16
-44.195843 -13.562366 0.45292798 14
-44.141312 -13.482054 -0.3303594 36
-44.16618 -13.497074 -0.18763524 92
-44.113892 -13.515653 -0.040342271 14
-44.112965 -13.519985 0.10571593 11
-44.154408 -13.484037 0.25550902 190
-44.1119 -13.488132 -0.33988935 75
-44.151424 -13.553724 -0.20813841 96
-44.1021 -13.49297 -0.047672331 21
-44.119198 -13.493378 0.16912857 136.5
-44.100616 -13.436566 -0.37096965 30
-44.056419 -13.472322 -0.2313537 10
-44.10051 -13.466078 -0.085089497 64
-44.100746 -13.464504 0.13258177 142
-44.11459 -13.482815 0.34552458 54
-44.129005 -13.537304 -0.20050573 53.333332
-44.137115 -13.502487 -0.00081073999 65
-44.142345 -13.494667 0.14521259 255
-44.124016 -13.505774 0.36044079 33.5
-44.111862 -13.486506 -0.34125298 11
-44.093285 -13.461262 -0.19246376 89
-44.120499 -13.497276 -0.05404824 14
-44.139725 -13.489252 0.16166791 255
-44.14875 -13.505297 -0.34615445 54
-44.15274 -13.534455 -0.061400231 87
-44.145084 -13.509281 0.087985992 98
-44.151287 -13.505313 0.23289195 200
-44.095604 -13.423818 0.39461172 34
-44.082523 -13.508932 -0.28459603 54
-44.096603 -13.501469 -0.065399937 85
-44.086773 -13.479221 0.084473252 255
-44.094345 -13.477078 0.22841272 255
-44.071594 -13.451696 -0.21506488 6
-44.069191 -13.452014 0.074186921 1
-44.084679 -13.441506 0.21978503 255
-44.123558 -13.506117 0.49268642 47
-44.050308 -13.437634 -0.34409451 1
-44.133221 -13.508945 -0.21578771 21
-44.100121 -13.474764 -0.061388079 4
-44.103355 -13.447613 0.08872515 91
-44.124981 -13.467842 0.22802365 255
-44.13707 -13.489893 -0.31647485 33
-44.158913 -13.534735 -0.17979389 28
-44.125729 -13.466031 -0.021399319 18
-44.142429 -13.484639 0.11915165 255
-44.141327 -13.522245 0.1654008 2
-44.105576 -13.556581 0.44365561 0
-44.121662 -13.449255 -0.37445712 5
-44.1413 -13.499892 -0.21815765 36
-44.154785 -13.522922 -0.06060195 46
-44.160896 -13.514025 0.17869389 255
-44.122826 -13.507858 -0.29167205 35
-44.133385 -13.534591 -0.133075 52
-44.140163 -13.530572 0.10883778 154
-44.149139 -13.555466 0.344616 72
-44.130409 -13.494035 -0.30132729 43
-44.165279 -13.545719 -0.14299512 65
-44.163177 -13.542176 0.01813096 57
-44.15596 -13.536909 0.17880183 255
-44.144566 -13.52509 -0.1362744 65
-44.122169 -13.478564 -0.29650408 33
-44.158516 -13.542818 0.02515441 63
-44.167946 -13.533472 0.18777758 189
-44.131741 -13.439971 -0.3726294 10
-44.130524 -13.488083 -0.21114624 25
-44.156319 -13.537548 -0.04893446 50
-44.151951 -13.526356 0.11540937 255
-44.165066 -13.544678 0.27755857 65
-44.147942 -13.505407 0.44334674 16
-44.111649 -13.547628 -0.29822111 10.5
-44.131573 -13.47966 -0.037624061 10
-44.173607 -13.561721 0.12165159 43
-44.170727 -13.583779 0.28318 51
-44.117092 -13.629837 0.43942952 33
-44.114872 -13.502941 -0.32978404 36
-44.13559 -13.549255 -0.32123548 32
-44.12545 -13.485582 -0.32924694 15
-44.137299 -13.54671 -0.36385256 37
-44.166134 -13.509048 -0.27603549 0
-44.072971 -13.5063 -0.24518454 0
-44.168137 -13.488275 0.18211687 0
-44.098011 -13.564726 -0.26953757 32
-44.188286 -13.546382 -0.39367414 9
-44.191803 -13.505767 -0.33055305 16
-44.066956 -13.557391 -0.31608945 32
-44.071064 -13.581624 -0.14381844 24
-44.098526 -13.620391 0.12810379 72
-44.124924 -13.544298 0.01484388 1
-44.090508 -13.617033 -0.29584622 27
-44.026566 -13.537624 0.56245703 71
-44.126896 -13.637827 -0.28649545 12
-44.043785 -13.517973 0.41360617 71
-44.116978 -13.495014 -0.029503521 61
-44.141891 -13.484306 0.13160086 255
-44.132862 -13.631275 -0.1181944 18
-44.13269 -13.462265 -0.29812229 81
-44.092125 -13.502417 -0.098790288 34
-44.022568 -13.553741 0.53034502 55
-44.098545 -13.497656 -0.24905938 23
-44.113094 -13.487731 -0.28400159 66
-44.109673 -13.520721 0.46236455 35
-44.041626 -13.516147 -0.24179947 36
-44.060253 -13.505315 -0.09364295 54
-44.061764 -13.527803 0.12600917 59
-44.081635 -13.5399 0.49180225 70
-44.040882 -13.533878 0.01137918 33
-44.058453 -13.553591 0.15414137 25
-44.134796 -13.493082 -0.3346532 34
-44.164143 -13.49172 0.10300279 60
-44.154663 -13.508276 0.24823242 47
-44.128685 -13.462965 -0.26025867 54
-44.133865 -13.481749 0.25001281 71.5
-44.124825 -13.548372 -0.33368927 51
-44.000988 -13.531536 -0.46178335 43
-44.104568 -13.495108 -0.17904788 55
-44.100586 -13.498192 -0.03357232 59
-44.117447 -13.516855 0.25100738 60
-44.039665 -13.537527 0.11639196 75
-44.031727 -13.478918 -0.35843194 37
-44.1595 -13.46943 0.063789546 64
-44.075352 -13.503048 -0.074257247 34
-44.09874 -13.500145 0.21391308 54
-44.123665 -13.497708 0.35572597 65
-44.119408 -13.514917 0.4997046 58
-44.09713 -13.481098 -0.18575144 50
-44.06115 -13.516955 0.03294611 46
-44.091969 -13.509394 0.24720132 83
-44.118309 -13.513766 0.38771293 61
-44.089996 -13.527889 0.53571403 45
-44.038906 -13.479045 -0.26310802 42
-43.998074 -13.519455 -0.11783838 30
-44.026344 -13.513012 0.097870529 50.5
-44.018562 -13.530746 0.31426266 38
-44.014591 -13.539411 0.45945445 18
-44.125229 -13.509563 -0.27338779 34
-44.15654 -13.498569 -0.055676281 45
-44.149105 -13.513674 0.16146457 48
-44.142426 -13.528011 0.30666411 35
-44.176849 -13.513228 0.44808668 49
-44.129532 -13.511031 -0.30858159 35
-44.128826 -13.529142 -0.01495469 36
-44.175621 -13.504692 0.27564642 213
-44.13166 -13.530907 0.13164574 33
-44.026375 -13.503051 -0.32839191 28
-44.104412 -13.500302 -0.11572063 54
-44.122475 -13.502787 0.10101604 49
-44.085415 -13.527136 0.24975154 51
-44.082432 -13.542911 0.39453438 42
-44.030376 -13.525881 -0.40254819 31
-44.137733 -13.543339 -0.26930082 82
-44.096848 -13.511137 -0.11195058 47
-44.074619 -13.526781 0.10746849 143.5
-44.171925 -13.587364 0.30592349 76
-44.159885 -13.495925 -0.37879544 52
-44.132755 -13.5296 -0.086323321 36
-44.133671 -13.525097 0.06257695 59
-44.121513 -13.542253 0.20881021 32
-44.045162 -13.503684 -0.15697885 17
-44.073372 -13.508579 -0.01018101 31
-44.09388 -13.50344 0.21127015 86.5
-44.087799 -13.531815 0.42997 27
-44.074894 -13.548296 0.57788205 10
-44.0681 -13.483294 -0.17404044 62
-44.095112 -13.576639 -0.2677449 29.5
-44.060783 -13.529866 -0.03337276 27
-44.077137 -13.505732 0.11794442 133
-44.08387 -13.535168 0.33462068 30
-44.184914 -13.507584 -0.40513498 29
-44.14077 -13.54649 -0.11084825 18
-44.131527 -13.489539 -0.31599152 51
-44.182312 -13.584366 -0.1863479 29
-44.086636 -13.52883 -0.021004859 17
-44.125435 -13.482894 0.1329717 62
-44.144379 -13.496386 0.27818263 164
-44.122349 -13.479415 0.43030125 31
-44.094711 -13.510583 -0.25364369 17
-44.133816 -13.491655 0.19537151 111
-44.107376 -13.524073 0.043360472 16
-44.123505 -13.531834 0.33853897 16
-44.122795 -13.475365 -0.42306459 17
-44.138004 -13.48786 -0.27628982 45
-44.096043 -13.517441 -0.13069022 11
-44.148125 -13.488506 0.16858405 255
-44.145283 -13.50044 0.01925927 40
-44.148552 -13.541122 0.45769376 16
-44.147289 -13.516644 -0.25437838 77
-44.144096 -13.511684 -0.10375953 42
-44.167953 -13.512144 0.19176841 255
-44.161079 -13.525813 0.042099599 80
-44.115967 -13.548552 0.33769017 6
-44.090324 -13.562615 0.48669812 0
-44.11142 -13.497536 -0.1644488 67.5
-44.116997 -13.499357 0.058735192 59
-44.137512 -13.509626 0.20543414 255
-44.142105 -13.534151 0.34975702 93
-44.125702 -13.482964 -0.38926822 75
-44.125843 -13.514817 -0.09549278 93
-44.126869 -13.481927 0.06064951 255
-44.130238 -13.481096 0.20933071 255
-44.120018 -13.498459 -0.3116554 73
-44.094551 -13.4886 -0.082615487 50.5
-44.118252 -13.476801 0.14355695 226
-44.10495 -13.524349 0.43474966 1
-44.111973 -13.50791 -0.24058336 44
-44.142956 -13.528694 -0.020387709 47
-44.157368 -13.526136 0.12999344 255
-44.111683 -13.514582 -0.31234217 60
-44.136688 -13.559499 -0.096597552 84
-44.11248 -13.513642 0.14275783 255
-44.119507 -13.519311 0.29210484 255
-44.112183 -13.534718 0.43960932 32
-44.102257 -13.459996 -0.32221198 63
-44.109543 -13.463795 -0.021501061 33
-44.118458 -13.462683 0.12777007 255
-44.126823 -13.511522 -0.27898115 66
-44.124863 -13.49052 -0.12217611 77
-44.12558 -13.484571 0.10457152 169
-44.117886 -13.488535 0.4780201 0
-44.10379 -13.544538 -0.33111632 66
-44.149696 -13.615934 -0.19668818 42
-44.121521 -13.551213 -0.030114049 96
-44.121597 -13.530261 0.12528723 255
-44.1343 -13.55949 0.26721373 255
-44.056267 -13.51627 0.43126467 0
-44.109955 -13.503397 -0.26838994 36
-44.075718 -13.496083 -0.11515903 34
-44.128098 -13.514023 0.10678059 135.5
-44.136642 -13.548299 0.32307038 88
-44.13102 -13.529794 0.47728592 14
-44.108124 -13.484022 -0.31843656 60
-44.074032 -13.473305 -0.16644406 83
-44.129768 -13.513383 -0.02405226 92
-44.14399 -13.514528 0.12498081 255
-44.170334 -13.568929 0.4097459 93
-44.108253 -13.447659 -0.32480681 33
-44.129654 -13.481409 -0.03002077 84
-44.135803 -13.459009 0.12492293 255
-44.138 -13.472868 0.42099077 4
-44.128418 -13.524539 -0.28175116 30
-44.141396 -13.525213 -0.12975621 38
-44.153122 -13.52619 0.021636721 52
-44.159729 -13.528271 0.17120272 255
-44.117615 -13.508532 -0.2741915 27
-44.149616 -13.542541 0.02392596 33
-44.106007 -13.639917 0.15296906 14
-44.162121 -13.559065 0.47400427 12
-44.118122 -13.509748 -0.35715222 24
-44.145119 -13.56094 -0.21337831 21
-44.139343 -13.565354 -0.062774897 10
-44.11092 -13.601567 0.08071512 0
-44.114582 -13.49653 0.2537989 5
-44.152386 -13.563869 0.45865044 11
-44.131058 -13.524514 -0.18140978 9
-44.137177 -13.548144 0.052908059 15
-44.159626 -13.563215 0.20889926 255
-44.120808 -13.595122 0.51530206 7
-44.082798 -13.438744 -0.38187444 8
-44.102398 -13.556266 -0.24348533 9
-44.128315 -13.484686 0.017693279 143.5
-44.120117 -13.448956 0.4261964 0
-44.11586 -13.47928 -0.34782749 27
-44.134964 -13.528409 -0.02864724 60
-44.142895 -13.52624 0.1332553 255
-44.099052 -13.630534 0.43699405 22
-44.104042 -13.509115 -0.35834509 17
-44.138233 -13.554962 -0.11362195 47
-44.147415 -13.569434 0.12986982 72
-44.131168 -13.531987 0.29497707 29
-44.114906 -13.486464 -0.31755632 44
-44.13895 -13.5413 -0.15568036 66
-44.141693 -13.534636 0.01100993 61
-44.164883 -13.56945 0.25545633 78.5
-44.162167 -13.474277 -0.38730437 28
-44.121765 -13.497528 -0.22694403 56
-44.131783 -13.525333 -0.061323229 61
-44.125275 -13.49463 0.11068237 255
-44.103771 -13.490031 0.27748039 65
-44.194572 -13.564312 0.076045513 0
-44.161671 -13.487075 0.25482494 0
-44.044617 -13.465651 0.24936856 18
-44.013851 -13.490613 -0.14879155 55
-44.153912 -13.547821 -0.5404591 7
-44.017658 -13.516537 0.00050219998 59
-44.108528 -13.595897 0.11675735 255
-44.136944 -13.56669 -0.37345082 8
-43.994038 -13.510825 0.0029762699 255
-44.110935 -13.523798 -0.26469266 58
-44.018196 -13.491532 -0.26986229 56
-44.148849 -13.566645 -0.36927697 30.5
-44.171623 -13.559496 0.27882698 53
-44.002445 -13.525184 -0.068015806 55
-44.06649 -13.478499 -0.27307057 32
-44.071014 -13.504385 0.36254382 54
-44.082893 -13.469883 -0.40950745 42
-44.035988 -13.571898 -0.40182728 40
-44.077145 -13.550537 -0.42636386 45
-44.061958 -13.447037 -0.31526363 34
-44.055119 -13.521838 0.062091529 255
-44.075108 -13.434755 -0.30081809 40
-44.025581 -13.527179 -0.29346204 47
-44.03046 -13.55605 0.37541047 51
-44.048756 -13.492908 -0.17401403 54
-44.032825 -13.501797 -0.033205241 61
-44.0513 -13.578568 -0.37838697 29
-44.078865 -13.558073 0.15591121 119
-44.150169 -13.460115 -0.11976111 72
-44.139801 -13.491951 0.40364015 36.666668
-44.050636 -13.495125 -0.22552854 60
-44.090775 -13.51018 0.2885229 30.75
-44.017914 -13.515922 0.39243808 67
-44.009003 -13.500725 -0.37075633 12
-44.024281 -13.480099 -0.12487999 62
-44.110775 -13.453702 -0.40274274 28.666666
-44.087669 -13.441923 0.09433496 86.666664
-43.999756 -13.506773 -0.43891293 54
-44.014004 -13.506922 0.0489158 127
-44.159035 -13.502822 0.099568672 64
-44.062462 -13.505093 -0.051324069 72
-44.085831 -13.544001 0.41794187 53.5
-44.059494 -13.569883 -0.045432031 30
-44.062851 -13.565975 0.40877193 36
-44.019562 -13.500722 -0.05906266 71
-44.029888 -13.539899 0.39545757 54
-44.017906 -13.4865 -0.25119728 35.333332
-44.111595 -13.648781 0.27965128 50
-44.035362 -13.512119 -0.17544311 40
-44.036201 -13.55599 0.25578552 44
-44.093456 -13.421304 -0.34587714 12
-44.130638 -13.485751 -0.27175647 75
-44.153481 -13.546293 0.1321153 232
-44.103661 -13.45508 -0.33078262 15
-44.055271 -13.504998 0.067928582 255
-44.054153 -13.586849 0.067950279 206
-44.180275 -13.547201 0.37072557 31.5
-44.120117 -13.511629 0.37112254 55
-44.101696 -13.428989 0.064816058 94.833328
-44.010429 -13.542253 -0.035634279 45
-44.028381 -13.532387 0.34051347 39.333332
-44.035732 -13.50116 -0.14895624 52.5
-44.05632 -13.481192 0.22123581 157.75
-44.021896 -13.504494 -0.20548946 63
-44.061493 -13.481744 0.15652555 199.5
-44.01025 -13.523808 -0.13105696 47.5
-44.043472 -13.500242 0.22836155 166.5
-44.113571 -13.43906 -0.33751941 53
-44.118542 -13.457128 0.02185953 47
-44.115921 -13.548925 0.38456738 30.5
-44.10577 -13.482645 -0.25472462 62
-44.093678 -13.414259 0.095555067 194.66667
-44.09729 -13.566601 0.10054457 109
-44.109848 -13.589014 0.45349169 28.5
-44.015869 -13.517725 0.32150716 30.5
-44.10173 -13.477019 -0.19756526 62
-44.094265 -13.505429 0.1422165 192.66667
-44.088062 -13.49801 0.48026413 59.5
-44.096718 -13.460181 -0.24729764 67.5
-44.162601 -13.585098 0.088309288 138.39999
-44.112358 -13.518549 0.42326486 47
-44.13039 -13.436629 -0.32636124 41
-44.080975 -13.471744 -0.32007998 78
-44.120895 -13.498644 0.16247946 51.666664
-44.085163 -13.547013 0.16627216 118
-44.011772 -13.528473 0.060256001 157
-44.064873 -13.485817 -0.26815176 50.666668
-44.050491 -13.489389 0.19320965 57.041664
-44.086197 -13.470234 -0.23063934 79
-44.106293 -13.467201 0.067352183 50.5
-44.132126 -13.467964 0.36787665 39
-44.013184 -13.503179 -0.32206529 62
-44.043152 -13.515052 -0.027976809 62
-44.068302 -13.522682 0.26926726 123
-44.096809 -13.39546 -0.31419152 22
-43.990532 -13.522034 -0.0061724801 88
-44.004333 -13.527811 0.42058581 109
-44.140675 -13.445031 -0.26768011 71
-44.118481 -13.633014 0.13643193 76.75
-44.016277 -13.507943 0.27116811 66
-44.128994 -13.502336 -0.036856059 56
-44.127972 -13.547462 0.36825466 81.5
-44.072559 -13.410579 -0.20039386 81.166672
-44.071507 -13.441111 0.19098157 146
-44.100021 -13.507589 0.45408148 72
-44.113235 -13.582037 0.4588384 12
-44.050163 -13.459109 -0.32040477 75
-44.064709 -13.498637 0.43345463 74.5
-44.112278 -13.480874 -0.24732363 53
-44.062462 -13.523215 -0.23876625 64.5
-44.063271 -13.542184 0.0077304798 65.5
-44.076027 -13.420507 0.24345028 255
-44.096603 -13.562856 0.25182486 132.33333
-44.038082 -13.496347 -0.32625109 57
-44.078575 -13.461178 -0.10442072 81
-44.066528 -13.488531 0.12902844 178.5
-44.069355 -13.501945 0.35976714 71.5
-44.010662 -13.490945 -0.31268299 44.900002
-44.064045 -13.537683 0.12112838 114
-44.04747 -13.501101 0.45193195 70
-44.038555 -13.495671 -0.23896337 63.666668
-44.042355 -13.468354 0.41364837 32
-44.101357 -13.488651 -0.25108933 68.333336
-44.047676 -13.521618 -0.13179511 56.75
-44.074265 -13.498293 0.28660041 141.66666
-43.989689 -13.518253 -0.32069123 55.666668
-44.082245 -13.506809 0.50059289 76.5
-44.131271 -13.449841 -0.13872051 83
-44.159672 -13.530849 0.26420379 107.5
-44.051929 -13.523255 0.19148755 72.5
-44.100185 -13.632607 0.28869134 75
-44.063656 -13.499008 0.48616457 74
-44.022621 -13.529358 0.069627456 85.75
-44.012913 -13.491581 0.35981402 59.333332
-44.032635 -13.570152 -0.31357288 42
-43.989971 -13.517187 -0.05691028 73.5
-44.018116 -13.527923 0.31651473 71.666672
-44.005119 -13.496851 0.38677526 36.25
-44.055134 -13.458721 0.41581216 85
-44.013046 -13.479519 0.42279807 184.5
-44.099335 -13.570755 -0.29770482 2
-44.118114 -13.494234 0.40265509 102.66666
-44.124271 -13.508099 -0.18645358 7.5
-44.12579 -13.499628 0.076243579 42
-44.134117 -13.543741 0.25169337 50
-44.064495 -13.555555 0.43741482 61.083336
-43.998173 -13.531708 0.44032839 73
-44.067547 -13.46682 0.30542904 162
-44.06842 -13.473801 -0.31847608 42.333332
-44.106709 -13.490612 -0.078072548 73.25
-44.128838 -13.481544 0.24691939 138.75
-44.102314 -13.423853 0.3687754 159.25
-44.052494 -13.49268 -0.14738894 75.166672
-44.080643 -13.505639 0.24952722 142.83333
-44.05381 -13.448061 -0.29816192 83.5
-44.092594 -13.467873 -0.068748526 61.5
-44.187191 -13.533365 0.058068991 38
-44.100479 -13.453873 -0.06177938 63.25
-44.123737 -13.478542 0.32534274 106.61111
-44.072609 -13.511077 0.22605079 113.16666
-44.052166 -13.53917 0.54071808 71.333336
-44.062817 -13.515373 -0.39041674 26.222221
-44.064011 -13.42034 -0.3048054 51.857143
-44.095112 -13.520334 -0.087213807 17
-44.131943 -13.444916 -0.072220556 42.5
-44.177784 -13.490975 0.21745366 224.66666
-44.107357 -13.530882 -0.044583019 57.375
-44.123169 -13.557454 0.32977027 89.549995
-44.090202 -13.41359 -0.3146261 43.388889
-44.083557 -13.49863 -0.0959692 40
-44.11755 -13.645302 -0.036759969 51.345238
-44.084789 -13.501684 0.20322007 255
-44.123047 -13.639513 0.26627234 94.800003
-44.042004 -13.533023 0.36169672 100
-44.069794 -13.50329 -0.27747488 53.111111
-44.032135 -13.500593 0.03166258 123.125
-44.048626 -13.492205 0.32574493 107.125
-44.08112 -13.534573 -0.26333827 34.940475
-44.113991 -13.474799 0.10853952 125.7
-44.15023 -13.49999 0.39594185 54.5
-44.077862 -13.509259 0.48683232 46
-44.101261 -13.510599 -0.31787372 56.350002
-44.153149 -13.574627 0.037264589 102.9
-44.159996 -13.552986 0.33388689 47.614285
-44.10112 -13.509247 0.10598576 137.125
-44.118507 -13.565329 0.39505726 52.485718
-43.990776 -13.519551 0.10635579 2.145833
-44.049984 -13.54545 0.41244751 1.083333
-44.101784 -13.541514 0.47666407 0
-44.152943 -13.528656 -0.38923985 0
-44.180824 -13.535676 -0.10245633 0.66666698
-44.104439 -13.456891 -0.15044588 1.5
-44.154587 -13.491828 0.19688439 53.986115
-44.183117 -13.57501 0.47081661 14
-44.188499 -13.526812 -0.0267573 43.76984
-44.050903 -13.490046 -0.31537837 27
-44.088188 -13.44014 -0.090636909 41.674999
-44.146194 -13.498614 0.25408256 66.466667
-44.18652 -13.532598 0.53272235 11
-44.043068 -13.478361 -0.36007929 22
-44.133854 -13.467353 0.00066090003 115.37963
-44.162407 -13.505003 0.35213196 120.875
-44.113888 -13.438761 0.069521703 143.08333
-44.150814 -13.509754 0.41576332 42.972221
-44.13752 -13.439159 0.15125799 135.83333
-44.171329 -13.518745 0.4243601 73
-44.074722 -13.441413 0.1458267 138.41666
-44.116581 -13.537254 0.41700438 69.5
-44.15839 -13.499153 -0.30394578 52.5625
-44.160446 -13.521421 0.054486629 118.05
-44.157749 -13.537611 0.41415554 60.208336
-44.169796 -13.543387 -0.26227832 57.566666
-44.204334 -13.536532 0.10187632 173.75
-44.14172 -13.45822 0.41093853 61.75
-44.117783 -13.491328 -0.40393937 13
-44.194317 -13.564306 0.45505622 65
-44.121803 -13.427824 0.19576728 124.96667
-44.161098 -13.514257 0.46817631 60.655556
-44.157688 -13.564818 -0.1369971 81.25
-44.163364 -13.585696 0.51432043 38.5
-44.128704 -13.548419 0.52293551 29
-44.074535 -13.478575 -0.37953615 37.400002
-44.071785 -13.427914 -0.14971405 82.125
-44.114426 -13.482594 0.20099106 112.7
-44.131653 -13.53307 0.48138523 56.200001
-44.098236 -13.435322 -0.2771284 59.920635
-44.162327 -13.546255 0.062988758 146.5
-44.174461 -13.576291 0.3464596 132.16071
-44.07196 -13.422596 -0.11343491 63.188889
-44.146534 -13.515196 0.22933128 145.66667
-44.160858 -13.576817 -0.2164979 61.875
-44.179008 -13.562582 0.14852363 190.75
-44.17572 -13.585407 0.43316036 56.583332
-44.082283 -13.397518 0.40008432 19.666666
-44.110218 -13.612226 -0.38126653 20.25
-44.057625 -13.439766 -0.26897168 79.888885
-44.048283 -13.448849 0.01969004 64.166672
-44.120987 -13.539473 0.35901326 109.38889
-44.153988 -13.597206 -0.17297375 11.416667
-44.067585 -13.429694 0.078581207 59.138889
-44.086754 -13.44932 0.43313998 34.553574
-44.08218 -13.487848 -0.21038574 11.527778
-44.140587 -13.507399 0.14665869 111.29167
-44.128387 -13.52562 0.4325946 14.714286
-44.124138 -13.506737 -0.32031143 19
-44.133308 -13.496605 -0.027454199 17.291666
-44.140617 -13.486835 0.26238483 126.025
-44.156902 -13.542581 0.16176459 0
-44.08408 -13.435822 0.10492581 91.30555
-44.137352 -13.513711 0.41443133 44.875
-44.119686 -13.577066 -0.30336958 24.75
-44.13884 -13.577429 0.02092904 64.219696
-44.084095 -13.456687 0.42789561 29.714285
-44.115517 -13.566447 0.50423616 5
-44.15015 -13.469707 -0.37329924 10
-44.079891 -13.420189 0.12151694 96.166664
-44.171711 -13.549778 0.43957758 65.5
-44.132244 -13.458859 -0.20151716 0
-44.141159 -13.56582 -0.29712057 9.4375
-44.14679 -13.487151 0.12873554 255
-44.13995 -13.565795 0.03568786 36.458336
-44.126221 -13.531235 0.17986953 52.166664
-44.032661 -13.48065 0.2776258 68.5
-44.14925 -13.56505 0.48143423 31
-44.122478 -13.572262 -0.22055715 27.166666
-44.132301 -13.565968 -0.22513241 22.166668
-44.144764 -13.556911 0.19513112 33
-44.13702 -13.580938 0.50604504 30
-44.074047 -13.570467 -0.37298173 27.5
-44.112358 -13.558344 -0.04750913 47.366669
-44.130753 -13.599996 0.37370878 47.5
-44.089462 -13.404203 -0.31719768 13.75
-44.125961 -13.552303 0.11220157 50.583332
-44.04253 -13.556824 0.10459888 147.25
-44.141785 -13.566565 0.4327805 33
-44.078697 -13.508022 -0.31388599 0.33333299
-44.131073 -13.571118 -0.089699797 0
-44.158005 -13.562641 -0.16414529 2.333333
-44.133888 -13.463943 0.16991729 0
-44.096901 -13.607164 -0.24507046 4
-44.127266 -13.616933 -0.01447797 2.5
-44.125992 -13.627392 0.32513678 6.583333
-44.172894 -13.540131 -0.20827442 28
-44.198437 -13.561719 0.39721674 41
-44.10725 -13.556063 -0.034702241 10.5
-44.119324 -13.630571 0.41851503 0
-44.129646 -13.59962 -0.26398104 1
-44.119164 -13.630424 0.042423312 1
-44.137867 -13.576123 0.01595962 0.25
-44.152107 -13.572371 -0.068968892 53
-44.136131 -13.610613 0.24402344 116
-44.149895 -13.490502 -0.21897984 29.5
-44.124302 -13.570225 0.093467712 255
-44.14246 -13.578671 0.41541982 61
-44.191116 -13.545774 0.42425275 44
-44.147923 -13.462599 -0.25572121 19
-44.128971 -13.558119 0.25411224 69
-44.173836 -13.520133 -0.34351563 22
-44.158367 -13.535374 -0.01442051 33
-44.184776 -13.537004 -0.37342459 41
-44.109558 -13.598195 -0.22052675 28.75
-44.083992 -13.604174 -0.35392332 12.75
-44.141254 -13.570185 -0.00478792 32
-44.13586 -13.463659 0.17288685 26
-44.105236 -13.535735 -0.13534409 26.25
-44.116524 -13.573222 0.37602895 30.5
-44.064922 -13.567626 -0.29083031 22.333334
-44.089855 -13.626036 -0.37512827 53.5
-44.118927 -13.634862 0.31825399 48
-44.144878 -13.490681 0.1124171 146.33333
-44.132652 -13.570308 -0.095573962 41.5
-44.135254 -13.604653 0.25235003 114
-44.005314 -13.523424 -0.1479643 8
-44.116898 -13.588191 -0.023282049 26.333334
-44.046745 -13.466715 -0.075827964 52
-44.130432 -13.548189 -0.37865603 10.666667
-44.140678 -13.554756 -0.015782 23.666666
-44.143379 -13.559251 0.34817111 31.666666
-44.134296 -13.499498 -0.20843834 12
-44.09304 -13.445594 0.15483028 134
-44.091331 -13.576715 -0.13896585 43
-44.109978 -13.594648 0.22909904 61
-44.029671 -13.516788 0.22583032 155.5
-44.072105 -13.566839 -0.2387771 31
-44.147404 -13.571157 -0.1176616 33
-44.067589 -13.548988 -0.17131746 12.5
-44.08746 -13.622444 0.20387208 128
-44.09491 -13.593781 -0.02957451 26
-44.149269 -13.595494 0.39321518 27
-44.142197 -13.524611 0.41106051 4
-44.011871 -13.534477 0.17654479 14
-44.139233 -13.614944 0.55593115 26
-44.133503 -13.60556 0.27038813 7
-44.122028 -13.552223 -0.18510449 3
-44.154301 -13.590618 -0.33055073 54
-44.159836 -13.547279 0.3903147 37.5
-44.188206 -13.570896 -0.32004833 53
-44.066437 -13.499729 -0.29472792 3
-44.125057 -13.642113 -0.13461703 51
-44.05167 -13.57906 -0.33480287 32.5
-44.094799 -13.628601 0.46480113 50
-44.088001 -13.577885 0.35974997 29
-44.050449 -13.568947 -0.273875 34
-44.135101 -13.585541 0.50853896 41
-44.132469 -13.566402 0.049090799 26
-44.060623 -13.555431 0.051212009 23
-44.163456 -13.601948 -0.00221825 56
-44.117168 -13.471596 0.063109338 137.5
-44.16283 -13.595478 -0.30198336 65
-44.118217 -13.630882 0.44893312 50
-44.110798 -13.632725 0.042626262 79
-44.124176 -13.64402 0.43534219 60
-44.127266 -13.645187 0.12700468 255
-44.13216 -13.629967 0.3263405 75
-44.087009 -13.520058 -0.15270919 24.333334
-44.110104 -13.613491 -0.37037075 50
-44.075226 -13.493629 0.39236665 34.5
-44.107685 -13.495838 -0.17773712 36
-44.142822 -13.601612 -0.0180465 51
-44.137455 -13.629158 -0.39126146 12
-44.124912 -13.634769 0.31513965 60
-44.170116 -13.596596 -0.3657065 24
-44.14246 -13.597359 -0.38495815 34
-44.092625 -13.411015 0.36692059 9
-44.124115 -13.623634 -0.22625923 56
-44.092964 -13.603565 -0.26494724 59
-44.08107 -13.616158 -0.14005429 58
-44.090122 -13.611012 -0.25989938 45
-44.060596 -13.531242 0.036654651 25
-44.076504 -13.600197 -0.35533541 26
-44.080616 -13.607628 -0.20711893 51
-44.129745 -13.626953 -0.15245426 47
-44.144268 -13.468914 -0.037722051 38.5
-44.123375 -13.579269 -0.29939395 51
-44.09166 -13.631107 -0.090646982 43
-44.108284 -13.54612 -0.28566206 19
-44.160366 -13.56007 0.23852348 5.5
-44.127453 -13.625893 -0.12576437 143
-44.151127 -13.601715 0.099849217 155
-44.126232 -13.582687 0.04967064 31
-44.176601 -13.509041 0.02004981 109.33334
-44.04287 -13.498543 -0.04220378 24.333334
-44.003746 -13.503872 0.0068593598 38.5
-44.106503 -13.632748 -0.050313469 31
-44.10025 -13.606552 0.13068599 55
-44.059895 -13.56435 -0.39182168 10
-44.101963 -13.470444 0.39230752 27.666666
-44.069111 -13.570042 -0.4367137 9
-44.105072 -13.494324 0.34504229 24
-44.044556 -13.575363 -0.13058442 1
-44.094982 -13.607674 0.65164262 6
-44.066959 -13.6049 -0.11803526 30
-44.157207 -13.560059 0.10754156 21
-44.079418 -13.615032 -0.28999293 61
-44.127029 -13.596252 0.49146014 1
-44.077938 -13.56052 -0.32910538 33.5
-44.011024 -13.516834 0.076498508 106.33334
-44.111084 -13.548225 0.38947117 8
-44.107391 -13.630394 -0.16191161 58
-44.012749 -13.486618 0.34241873 32.5
-44.108284 -13.62352 -0.19506454 32
-44.085312 -13.588673 -0.066679239 19.5
-44.064819 -13.599964 0.080256343 255
-44.055496 -13.473122 0.35129511 1
-44.105835 -13.625496 -0.038140181 1
-44.061802 -13.457314 0.29612565 2
-44.162003 -13.469868 0.33111939 17
-44.020626 -13.498335 0.32800591 141.5
-44.033005 -13.557577 -0.00233053 14
-44.081245 -13.568663 -0.52551365 4
-44.137856 -13.592607 0.25296205 62
-44.101418 -13.595163 0.48227638 59
-44.085766 -13.528648 -0.020048199 27
-44.049698 -13.584354 -0.092840917 38
-44.107548 -13.58754 0.43103111 32
-44.078831 -13.510387 -0.02498946 54
-44.052197 -13.528779 -0.1759764 3
-44.114571 -13.631566 0.5072031 41.5
-44.112198 -13.594906 -0.18139124 28.666666
-44.06863 -13.567336 -0.4128207 27.666666
-44.093697 -13.613013 0.078852773 145
-44.032349 -13.5534 0.28168786 193
-44.046303 -13.528012 0.34975827 255
-44.05191 -13.568092 0.28915977 84
-44.085121 -13.569684 -0.2887584 72
-44.112877 -13.495878 0.1352948 205
-44.092262 -13.567049 0.00043267 71
-44.090343 -13.536663 -0.10022837 38
-44.132599 -13.578064 0.31120723 99.75
-44.075081 -13.512567 -0.11850762 50
-44.049805 -13.565505 0.29692626 158
-43.988911 -13.516348 -0.29835331 52
-44.107674 -13.462299 -0.32967788 24.5
-44.030563 -13.538199 -0.32807684 77
-44.032867 -13.564379 0.42389774 40.333332
-44.077965 -13.511986 -0.15343428 57
-44.053669 -13.512941 0.028948311 129.5
-44.036804 -13.530716 0.3966977 38.5
-44.088432 -13.51062 -0.17857063 21
-44.031757 -13.543478 -0.17328584 75
-44.057529 -13.446581 0.33150971 98.166664
-44.078171 -13.553619 0.50714028 53.5
-44.097645 -13.552102 -0.30263996 75
-44.08577 -13.463428 0.02390218 68.666664
-44.119545 -13.6499 0.039469961 29
-44.097649 -13.455425 0.35261083 41.75
-44.104774 -13.543365 0.026960669 146.25
-44.136429 -13.56777 0.51546508 33
-44.022354 -13.521397 -0.33150029 56.5
-44.11137 -13.63509 0.30675006 143
-44.1026 -13.528454 -0.18687016 38.299999
-44.018456 -13.495359 0.28735894 157.25
-44.12368 -13.54413 -0.098838568 56
-44.122978 -13.572077 0.058757309 105.25
-44.091908 -13.556927 0.32431388 75
-44.022141 -13.55114 0.45212561 69
-44.047859 -13.547626 0.34663904 66
-44.147713 -13.480807 -0.30348122 46
-44.142174 -13.546024 0.24600887 195.33333
-44.138737 -13.551291 0.38278222 83.5
-44.090397 -13.527949 -0.27709043 72.5
-44.074753 -13.47486 0.10264409 118.375
-44.130333 -13.552118 0.48654997 54
-44.086754 -13.491373 -0.21308672 63.333332
-44.098129 -13.510249 0.034426931 80
-44.079964 -13.510071 0.16190457 112.5
-44.090317 -13.494274 -0.23269701 59
-44.089714 -13.497513 0.36360455 139.5
-44.083611 -13.578081 0.25015044 50
-44.090061 -13.513983 -0.32113373 65
-44.097775 -13.564112 0.029267309 138.5
-44.110859 -13.588819 0.37951261 32.333332
-44.115845 -13.459211 -0.3725611 37.333332
-44.009178 -13.513818 -0.016523659 105.75
-44.036106 -13.544477 0.3176825 74
-44.094315 -13.514426 -0.36190164 71.333336
-44.086784 -13.522006 -0.03223455 128.5
-44.081341 -13.393973 -0.33547902 38.400002
-44.025898 -13.475422 0.0024568399 59.25
-44.10701 -13.601037 0.43173659 98
-44.040264 -13.493948 -0.25203687 83
-44.012726 -13.519518 -0.24744684 62
-44.028511 -13.471519 0.064626813 172
-44.025909 -13.546807 0.067624092 75.75
-44.062214 -13.510667 0.37760299 86
-44.061954 -13.500568 -0.30645996 69
-44.082417 -13.531265 -0.0065816599 76.25
-44.104137 -13.531075 0.29318041 116.5
-44.120743 -13.547292 -0.074553549 75
-44.138691 -13.601768 0.42492574 68
-44.107853 -13.5343 0.42379791 255
-44.0597 -13.473944 -0.33368397 43
-44.078659 -13.546714 0.48340356 60
-44.114601 -13.480947 0.17230099 128
-44.141571 -13.50392 0.42681724 61
-44.083271 -13.481151 0.43619001 56
-44.075966 -13.540765 0.44029742 74
-44.019939 -13.508501 -0.25578392 68
-44.073509 -13.495941 0.24070734 255
-44.086994 -13.491481 -0.18950349 75.5
-44.036961 -13.518554 -0.34657967 90
-44.114574 -13.496399 0.21928465 166.5
-44.146996 -13.508656 0.46276319 20
-44.123901 -13.52982 0.46740556 66
-44.096699 -13.539616 0.47230244 59
-44.170017 -13.511212 -0.36534584 44.25
-44.111397 -13.580374 0.131221 69.166664
-44.080585 -13.49819 0.37768078 64
-44.120754 -13.632129 0.37179804 64
-44.090099 -13.439547 -0.2086935 73.650002
-44.084747 -13.404942 0.18350685 92.833336
-44.149639 -13.52137 0.4807249 38.166668
-44.119774 -13.602627 -0.031925559 53
-44.028374 -13.525208 0.06766969 80
-44.061985 -13.520874 0.36957395 142.25
-44.004467 -13.519972 0.04659671 61.075001
-44.012825 -13.530148 0.42260113 96.722229
-44.080624 -13.428365 -0.31406295 36.201923
-44.067207 -13.490631 0.057519201 121.39999
-44.090553 -13.515969 0.42748454 52.791664
-44.12862 -13.460681 -0.13434088 54.611111
-44.150177 -13.480772 0.23352337 112.15
-44.187996 -13.516143 0.44894248 59.599998
-44.119972 -13.501294 -0.2500037 47.400002
-44.130901 -13.507112 0.044846769 106.35
-44.137657 -13.517903 0.41186601 61.875
-44.063198 -13.541151 0.34628606 42
-44.013783 -13.523027 0.45450386 56.599998
-44.112068 -13.495831 -0.39796001 45.849998
-44.105034 -13.532309 -0.11048502 52.291664
-44.097118 -13.537853 0.25287384 100.48889
-44.077263 -13.483584 -0.36540008 29.6
-44.135605 -13.486629 -0.080591559 55.583332
-44.16716 -13.498804 0.27646422 147.60001
-44.186249 -13.50688 0.48973185 62
-44.044098 -13.476186 -0.32446253 35.333332
-44.098858 -13.49357 -0.042408999 57.833332
-44.183941 -13.553545 0.22711819 60
-44.147038 -13.514833 0.31041312 158.125
-44.157742 -13.522576 0.52464658 64.75
-44.060051 -13.502424 -0.34317964 27.180555
-44.111195 -13.538656 0.0094856601 97.587303
-44.095825 -13.527958 0.37559539 56.666664
-44.21566 -13.534952 0.48405296 43.785713
-44.123947 -13.468441 -0.18584621 46.097225
-44.089142 -13.427027 0.11908406 89.027771
-44.148067 -13.54339 0.45679581 56.933334
-44.20327 -13.519011 -0.41795099 32.5
-44.154179 -13.549592 0.16727641 94.333336
-44.171448 -13.587547 0.45213231 47
-44.101528 -13.555825 0.46567473 23.666666
-44.198036 -13.561571 -0.32006752 42.150002
-44.196571 -13.548998 -0.021325169 114.75
-44.182583 -13.563858 0.34644938 90.416664
-44.12735 -13.454289 0.36616635 67.333336
-44.158577 -13.524126 0.27542382 113.05556
-44.166149 -13.555166 0.5654403 51.400002
-44.11705 -13.527955 -0.26002824 72
-44.131802 -13.54327 0.033125099 139.25
-44.143291 -13.57528 0.32322589 140.83334
-44.178722 -13.567148 0.19040829 127.5
-44.070595 -13.406696 0.22316527 153
-44.151558 -13.524462 0.42154798 71.333336
-44.135048 -13.513935 -0.18022603 79
-44.099815 -13.447962 0.20387018 110.23334
-44.161694 -13.544287 0.037490901 77
-44.17347 -13.567912 0.47839129 76.5
-44.093765 -13.554543 0.48686418 8
-44.030304 -13.544773 -0.43617952 26.200001
-44.164097 -13.539833 -0.21075416 87.166672
-44.169083 -13.518094 0.23735669 139.93333
-44.182056 -13.569212 0.081837773 80.333328
-44.158932 -13.540941 -0.1839028 77.533333
-44.187714 -13.560196 0.25794068 166.75
-44.135651 -13.566142 -0.25198054 54.577778
-44.152821 -13.547662 0.19911188 175
-44.161613 -13.573664 0.41719908 85
-44.102512 -13.524878 0.50143301 6
-44.114025 -13.538 -0.32574373 53.395832
-44.157825 -13.523733 0.051334981 255
-44.154816 -13.558207 -0.030022681 78.75
-44.159702 -13.539845 0.27145639 146.25
-44.15012 -13.550881 0.27019471 79.25
-44.076401 -13.423576 0.37132826 65
-44.143875 -13.546286 -0.1720686 75.888885
-44.139637 -13.493599 0.13900322 255
-44.148724 -13.543715 0.20347759 140.25
-44.16832 -13.559565 0.42301646 99.5
-44.038948 -13.455122 -0.30328113 60.65556
-44.174732 -13.560883 0.12136626 255
-44.09782 -13.490932 0.0657897 78.125
-44.173378 -13.575553 0.4174546 56.5
-44.136276 -13.559721 -0.096573532 85.5
-44.087677 -13.497862 -0.23125499 74.3125
-44.146927 -13.572824 0.20198131 178.875
-44.159245 -13.596527 0.42151615 104.4
-44.146626 -13.530042 0.18747467 157.08334
-44.130554 -13.474607 0.27446198 255
-44.112213 -13.474798 0.42435229 91.199997
-44.157471 -13.561842 0.01057285 113.11111
-44.135685 -13.58705 -0.038984422 95.05555
-44.079685 -13.485069 -0.01402992 154.5
-44.081665 -13.489876 0.36024168 98.208328
-44.133896 -13.544962 0.02410811 122.41666
-44.156845 -13.598894 0.38578647 73.300003
-44.138908 -13.541714 -0.33111334 71.5
-44.148727 -13.552114 -0.10793173 86.583328
-44.12104 -13.52248 -0.17687905 67.400002
-44.165855 -13.5892 0.25697064 96.851845
-44.13731 -13.503499 -0.18643135 62.031742
-44.157673 -13.522696 0.18493918 121.625
-44.18132 -13.580129 0.39542702 82.5
-44.188217 -13.539487 -0.28117788 16.822222
-44.165665 -13.573968 0.1614638 83.327774
-44.146542 -13.567033 -0.13441557 25.333334
-44.148613 -13.532538 0.32923931 44.630951
-44.11264 -13.507096 -0.05138183 6.8888888
-44.144253 -13.575254 0.31329709 2
-44.090302 -13.456203 0.16785854 91.400002
-44.145237 -13.583225 0.37649971 8.6999998
-44.136551 -13.595786 -0.10949516 8.666667
-44.142281 -13.607759 0.35912836 33
-44.107437 -13.587695 -0.41346776 2.5
-44.132042 -13.491493 -0.064309478 62.805553
-44.155739 -13.546629 0.32542413 44.708336
-44.110931 -13.582464 0.31572109 25
-44.112549 -13.550148 -0.19668466 38.841667
-44.138351 -13.546649 0.21008915 85.5
-44.150471 -13.546471 0.45160228 49.799999
-44.118076 -13.655549 -0.3734141 10.875
-44.139648 -13.609844 -0.038415551 50.899998
-44.115166 -13.588495 -0.33079225 36
-44.121094 -13.516069 -0.32065362 61
-44.147423 -13.548108 -0.073029824 56.083336
-44.154869 -13.549361 0.25762847 126.33333
-44.088474 -13.519384 0.25816992 48.666664
-44.162247 -13.503175 -0.39176553 19.5
-44.109917 -13.544065 -0.15099794 40.166668
-44.118103 -13.541522 0.18647403 92.5
-44.149746 -13.583904 0.43268782 39.666668
-44.128704 -13.537229 0.42924482 0
-44.104332 -13.551504 -0.14160228 0
-44.144478 -13.605357 -0.03157866 6.9000001
-44.107742 -13.476566 0.32008839 2
-44.154415 -13.601112 0.065149069 2
-44.091347 -13.528203 0.13681227 61
-44.088493 -13.604057 0.45032102 1
-44.104462 -13.513272 0.46555573 1
-44.122978 -13.444721 -0.03282911 2
-44.137131 -13.499367 -0.020896969 166
-44.065754 -13.559898 -0.32271278 60
-44.124294 -13.567062 -0.19400352 4
-44.094139 -13.566463 -0.33767009 1
-44.126793 -13.632172 0.22523588 19
-44.181717 -13.576538 -0.36555558 5
-44.112701 -13.611317 -0.0081965299 29
-44.109158 -13.595348 -0.31861991 18
-44.134541 -13.601944 -0.1825701 28.5
-44.117085 -13.636276 -0.07859242 60
-44.101662 -13.618057 -0.19383246 50
-44.076241 -13.616329 -0.20535195 47
-44.183502 -13.56414 -0.35623813 42
-44.044331 -13.481239 -0.04048359 31.5
-44.136055 -13.536537 -0.1014201 34
-44.144371 -13.544456 -0.10839057 20.666666
-44.015511 -13.512257 -0.062392469 7
-44.128033 -13.633991 -0.03231639 54
-44.060322 -13.486923 0.52977628 27
-44.132988 -13.624489 -0.1573745 27
-44.11731 -13.6301 -0.19898778 28
-44.076572 -13.595448 0.54396504 38
-44.10955 -13.646641 -0.14344072 56
-44.069637 -13.472244 -0.28946686 20
-44.057407 -13.521176 -0.27770901 4
-44.003437 -13.531837 0.27668494 65
-44.025063 -13.494051 0.28574902 50
-44.021343 -13.557064 0.15180984 70
-44.002106 -13.532862 -0.13824648 17
-44.139763 -13.604188 0.063441843 4
-44.02573 -13.519098 -0.072487198 15
-44.018883 -13.494503 -0.065190658 11.5
