# .PCD v0.7 - Point Cloud Data file format
VERSION 0.7
FIELDS x y z intensity
SIZE 4 4 4 4
TYPE F F F F
COUNT 1 1 1 1
WIDTH 1381
HEIGHT 1
VIEWPOINT 0 0 0 1 0 0 0
POINTS 1381
DATA ascii
-25.764294 1.2793808 5.5337801 13
-26.175428 1.2352142 5.6258278 255
-26.503582 1.1911964 5.6989355 255
-25.966679 1.2259979 6.5458231 155
-26.293928 1.1721077 6.6175585 130
-26.083853 1.2858505 5.4125309 188.33333
-26.493015 1.2250443 5.5098553 255
-26.739758 1.2084503 5.5699987 255
-25.941505 1.2649727 6.3558826 111
-26.269463 1.2287292 6.4345922 255
-26.513575 1.1764069 6.4912224 3
-26.100956 1.2793732 5.4735346 174.33333
-26.590853 1.2208862 5.5993967 255
-26.836399 1.2009659 5.6632738 255
-26.024363 1.2348022 6.4339161 2
-26.270212 1.2224503 6.4983969 17.5
-25.77124 1.3013039 5.8838267 129
-26.01593 1.2674484 5.9430771 255
-26.424395 1.2254639 6.043427 255
-26.833057 1.1880798 6.1446018 174.33333
-26.35932 1.2790947 5.2864428 141
-26.687155 1.2456169 5.3646994 213
-26.055391 1.2482376 6.1806755 255
-26.464373 1.2032471 6.2778997 255
-26.710949 1.1937294 6.3381214 255
-25.860518 1.2908134 5.5675898 158
-26.187649 1.2465286 5.6418972 255
-26.433262 1.2194595 5.6982899 255
-26.842972 1.1814804 5.7932253 137.5
-25.707256 1.3111687 5.9907651 64
-26.360794 1.241188 6.143568 255
-26.688566 1.2231712 6.2219439 9
-25.66312 1.2835579 6.2236743 129.5
-25.985571 1.2310143 6.3078675 255
-26.309204 1.2022209 6.3946447 148.5
-25.637085 1.2892532 6.2471762 66
-25.877062 1.2506409 6.3167133 255
-26.277838 1.2048759 6.4347687 255
-25.689474 1.2812958 6.0486879 133
-26.08884 1.237606 6.1711454 255
-26.4088 1.2117386 6.2703695 255
-26.729303 1.1933708 6.3706198 7
-25.745781 1.2935905 6.0324559 199
-26.384218 1.2159805 6.2266583 255
-26.784452 1.1874352 6.350574 132.5
-25.96508 1.2951279 5.5354404 128
-26.285139 1.2452431 5.6283445 255
-26.685719 1.1949272 5.7458315 255
-26.926464 1.1710129 5.8170948 255
-26.254547 1.2005768 6.6124363 1
-25.733366 1.2815552 5.6825824 13
-25.973938 1.2757072 5.7572689 255
-26.849709 1.1663246 6.024931 255
-26.428839 1.2403374 5.4439211 255
-26.746742 1.2048492 5.5436463 255
-25.737585 1.270565 6.2231426 10
-26.134007 1.2217865 6.3465519 255
-26.531147 1.1856003 6.4717827 178
-25.737879 1.2643738 6.1125131 6
-25.581547 1.3311272 6.0669327 3
-25.975985 1.2247925 6.1867933 255
-26.214434 1.1921158 6.2618647 255
-26.373688 1.1749306 6.312459 255
-26.209864 1.2883301 6.0761914 49.5
-26.532057 1.246254 6.1648278 162
-25.745541 1.3195839 5.6714363 255
-26.068073 1.2846298 5.7516832 255
-26.470194 1.229599 5.8513651 255
-26.793512 1.2061119 5.9333172 255
-26.100084 1.292511 5.314487 255
-26.420477 1.247303 5.4007301 255
-26.662727 1.2369156 5.4675031 255
-25.610838 1.3149643 6.1652956 3
-25.85121 1.2853813 6.2299438 175.5
-26.170986 1.2382469 6.3156505 255
-26.412413 1.2239227 6.3821878 54
-26.405077 1.276577 5.1893849 27
-25.652491 1.30299 5.9943795 192
-25.974417 1.2553596 6.0602818 255
-26.297817 1.2274971 6.128417 255
-25.69767 1.2755508 5.95994 170.66667
-26.101374 1.2060013 6.0360985 255
-26.344538 1.1770172 6.0832314 255
-26.238171 1.2863693 5.3228559 255
-26.639463 1.2379951 5.4187479 255
-26.028418 1.2867088 6.2424254 3
-26.276329 1.2520256 5.2797875 255
-26.440239 1.2570076 5.3126874 46
-25.613003 1.2872734 6.114212 225
-26.016022 1.2439957 6.1912365 255
-26.258568 1.2260094 6.2385507 255
-25.739712 1.2539749 5.9848757 255
-26.063578 1.2166672 6.0482297 255
-26.549496 1.1627884 6.1441469 136.5
-26.79483 1.1569099 6.194468 2
-25.960186 1.2780952 5.8635612 255
-26.368488 1.2422447 5.9312601 255
-25.79781 1.2534561 6.0028 255
-26.123507 1.2091789 6.056767 255
-26.449791 1.1707497 6.1116133 255
-26.777784 1.1460571 6.1681247 144.5
-25.905012 1.2665787 5.8976078 29
-26.14846 1.2436218 5.9458179 255
-26.471287 1.1981049 6.0090351 255
-25.65209 1.3164902 5.8423901 255
-26.060768 1.2722549 5.8886395 255
-26.470184 1.2335854 5.9359999 255
-26.714279 1.197773 5.963562 255
-25.699316 1.3269882 5.4949007 255
-26.186829 1.2661095 5.57546 255
-26.514418 1.2446785 5.6312666 255
-25.961447 1.2763329 6.4933462 16
-25.836517 1.1979828 6.3288927 255
-26.239429 1.1448479 6.397418 255
-26.725025 1.0952721 6.4820166 255
-25.992727 1.3019562 5.4068336 2
-26.235437 1.2496147 5.4447985 255
-26.725752 1.1790466 5.5240088 255
-26.164589 1.2112808 6.3840322 2
-26.493477 1.181366 6.4386215 26
-25.692223 1.3391457 5.6754785 255
-26.181843 1.282074 5.7701654 255
-26.592159 1.2479095 5.8507915 255
-26.920166 1.2170563 5.9153314 4.5
-25.748075 1.3109856 5.5241117 255
-26.074909 1.2788773 5.5803456 255
-26.484373 1.242569 5.6515274 174.33333
-25.974867 1.3118782 5.6355276 167
-26.219255 1.2633133 5.6634083 255
-26.547443 1.2125549 5.7020345 255
-26.795469 1.1849556 5.7321081 255
-25.859907 1.3383179 5.3578229 133.5
-25.728405 1.2778282 6.3396916 255
-25.802078 1.2783127 5.8589149 53
-26.044834 1.2463188 5.882453 255
-26.22356 1.1430092 6.1725984 48
-25.988426 1.178566 6.5754881 255
-26.228882 1.132679 6.6127815 255
-25.912464 1.3186722 5.5591984 255
-26.409023 1.2716751 5.6488686 255
-26.651102 1.2170525 5.6911278 6.5
-26.281408 1.2283325 5.5019851 190.66667
-25.879955 1.3554688 5.3836551 166.5
-26.279175 1.2865448 5.5023174 191
-26.01112 1.276474 6.4000273 255
-26.32748 1.2086716 6.4941211 4
-26.046772 1.1831093 5.9416494 47
-26.202648 1.1491089 5.9928703 255
-26.131351 1.2422333 5.8029199 255
-25.846989 1.3093605 5.8347511 255
-26.074696 1.2377434 5.9065185 255
-25.78871 1.2240524 6.3533492 255
-26.029053 1.1951866 6.4197779 255
-25.723822 1.3495178 6.1335511 149.5
-25.979088 1.2421646 5.8852787 255
-25.823832 1.2911186 5.8490806 2
-26.005884 1.3203468 5.37222 255
-26.493885 1.2441025 5.4901295 255
-25.939503 1.1719322 6.411541 2
-26.169018 1.0948067 6.4757638 255
-26.409351 1.0548515 6.5444102 255
-25.855551 1.355957 5.5834007 2
-26.32876 1.4669304 5.372395 133.5
-26.172443 1.3072624 5.3067446 255
-26.504444 1.2564011 5.3855124 255
-26.754364 1.2196884 5.4449186 54
-25.709198 1.3518028 6.1704378 3
-25.956245 1.3103943 6.2296391 170
-26.202084 1.2640724 6.288518 255
-26.263161 1.1524696 5.7388148 255
-26.502106 1.0892029 5.8019738 255
-26.916611 1.0292969 5.9121633 255
-25.958511 1.243351 6.284946 131
-26.110813 1.1844177 6.3261681 255
-25.752787 1.3566055 5.6111445 255
-25.996218 1.2939034 5.660882 255
-26.332333 1.2430573 5.7305727 255
-26.590485 1.2208977 5.7846212 255
-26.13858 1.2301674 6.6635103 41
-25.907331 1.2647552 5.4522672 6
-26.148638 1.2054787 5.5154414 255
-26.421555 1.186203 5.2268467 7
-26.577559 1.1267662 5.2592888 255
-26.217587 1.158741 6.1585007 11
-26.618563 1.0431709 6.2429967 255
-26.378599 1.1144333 6.1924219 255
-25.956976 1.3222313 5.5043106 255
-26.29689 1.2791862 5.562676 255
-26.64241 1.2487946 5.6227422 255
-25.637842 1.2772484 6.2210069 202
-26.052402 1.1838608 6.2780108 255
-26.485283 1.1378479 6.3407578 255
-26.726501 1.0588875 6.3730788 8
-26.378366 1.0606117 5.740571 128.5
-25.80514 1.3612022 5.6875687 255
-26.230783 1.312149 5.7942686 255
-26.650816 1.2449951 5.8999767 137.5
-25.969799 1.2982941 5.6996536 16
-26.211502 1.2291756 5.7536411 255
-26.627106 1.1445885 5.8472843 170.33333
-26.085081 1.2326393 5.4869761 255
-26.581369 1.1210861 5.5716519 255
-26.15988 1.179882 5.5505457 130
-26.401062 1.1014023 5.5903158 255
-26.741722 1.0415535 5.6479425 255
-26.069565 1.3269348 5.5184155 141
-26.393148 1.2301559 5.5838156 255
-26.655222 1.2036018 5.6376047 255
-25.862009 1.3078461 6.4631128 255
-26.186779 1.2170296 6.5296068 255
-26.404591 1.3369331 5.3945699 174
-25.701557 1.4564323 6.2303548 23
-26.03664 1.3827744 6.3035741 45
-25.641914 1.3562012 5.7910032 93.666664
-26.393993 1.2026558 5.9812841 255
-26.815151 1.1204796 6.0884695 129.5
-25.712353 1.408947 5.6090961 191
-25.964336 1.3603554 5.6743221 255
-26.137474 1.3394127 5.7191172 255
-26.39732 1.3067436 5.7864947 255
-26.646137 1.2472763 5.8514299 97
-26.548513 1.3110161 5.251977 28
-25.7047 1.4076424 6.0335431 206.5
-26.034334 1.3228455 6.1155434 255
-26.383345 1.2573395 6.2026186 133
-25.778622 1.2696342 6.2003312 255
-26.114925 1.1986504 6.2793913 255
-26.467463 1.1616096 6.3628759 255
-26.388306 1.1180878 5.4909058 159
-26.624851 1.0311317 5.5567503 255
-26.35376 1.0861816 6.1555834 255
-26.708399 1.0472031 6.2352114 255
-25.785208 1.4085312 5.4786844 6
-26.015045 1.3049316 5.5312185 255
-26.441126 1.2234344 5.6283035 255
-26.795969 1.1855354 5.7092657 255
-25.88196 1.3095055 6.4980202 2
-26.149893 1.2895508 6.5606251 4
-26.225473 1.1991615 5.4890819 12
-26.460089 1.1072197 5.5393515 255
-26.70479 1.035759 5.5919213 255
-26.017973 1.1904297 6.4387507 5
-26.269571 1.1366272 6.4936762 171.5
-26.232658 1.0312119 6.222578 255
-26.402836 1.2195702 5.2329025 255
-26.187321 1.2333679 6.1813488 151
-26.426571 1.1490669 6.2349138 255
-26.765858 1.0764236 6.3112764 132
-26.201313 1.2854691 5.3897877 255
-26.470058 1.2595253 5.4464788 255
-26.642824 1.2282944 5.4831786 255
-25.79291 1.4171829 6.2942052 3
-26.122221 1.3268166 6.3652391 17.666666
-25.710196 1.3775215 5.7899957 255
-25.860344 1.3056107 5.8233228 255
-26.208273 1.2576942 5.9005771 255
-26.558744 1.2124519 5.9787722 255
-26.813648 1.1606445 6.0360694 132.5
-25.956326 1.2827873 5.7548027 255
-26.383013 1.2002106 5.8494849 255
-26.821508 1.1373444 5.9472485 255
-25.908743 1.3613091 5.9318743 255
-26.343761 1.2958031 6.0385342 255
-26.590311 1.226284 6.099803 18
-26.101864 1.215271 6.5922866 255
-25.732327 1.4356346 5.5826664 255
-26.156137 1.3482552 5.6867108 255
-26.339621 1.3390656 5.7312908 255
-26.606804 1.3080368 5.7968063 255
-25.904758 1.261055 5.901834 240
-26.134054 1.1575127 5.9544382 255
-26.656536 1.0679893 6.0740867 255
-25.567369 1.3656921 6.1003089 2
-25.885998 1.2540588 6.1800857 255
-26.494955 1.1502609 6.3319268 255
-25.714354 1.3889885 5.8127193 255
-25.945631 1.2876244 5.8645306 255
-26.212461 1.251812 5.9237356 255
-26.489052 1.2318039 5.9851637 255
-26.9004 1.1047287 6.0778971 7
-25.91651 1.4411278 5.3698969 17
-26.073057 1.3764191 5.4047441 255
-26.324749 1.3097763 5.4603148 255
-26.593634 1.2733574 5.5192614 255
-25.696516 1.4279366 6.3163424 35
-25.929518 1.329258 6.3687878 255
-26.186844 1.2749748 6.4268532 255
-26.432648 1.198246 6.4825611 129
-25.609703 1.480175 5.7790623 134.5
-25.828892 1.3618355 5.8275809 255
-26.184675 1.3199043 5.9052601 255
-26.458036 1.2979507 5.9651542 255
-26.702505 1.2224998 6.0195708 32
-26.293352 1.1402092 5.5441656 180
-26.616152 1.0347366 5.6297083 255
-26.882488 0.99641418 5.6986427 255
-26.300661 1.1199837 6.5461235 3
-26.075733 1.3055077 5.7241669 255
-26.337837 1.2707977 5.7964425 255
-26.602112 1.2379074 5.8695354 255
-25.554213 1.3464432 5.9313493 15
-25.787863 1.2536011 5.9934754 255
-26.046576 1.2047691 6.0610995 255
-26.312233 1.1664352 6.1304445 255
-26.746695 1.0844994 6.2447081 71
-26.350689 1.2620926 5.5692406 189.66667
-26.691689 1.1969185 5.6791592 52
-25.927605 1.2668762 6.4501662 255
-26.179905 1.2159309 6.5332503 255
-26.41316 1.1975861 5.5973115 3
-26.554605 1.1133423 5.6439319 1
-25.777094 1.2790985 6.4131727 255
-26.00177 1.1769371 6.4856787 255
-25.82925 1.3732719 5.5079865 255
-26.065142 1.2928162 5.5889835 255
-26.330521 1.2604446 5.6756144 255
-26.839958 1.1555557 5.8459096 133.5
-26.311466 1.3715858 5.3378634 138
-26.538977 1.2760544 5.4109654 131.5
-25.67964 1.4582939 6.1510391 255
-25.824688 1.3860855 6.1984935 255
-26.052036 1.293869 6.2719564 255
-26.319992 1.2688065 6.3541651 255
-26.491228 1.2387047 6.4076395 37
-26.013138 1.3867645 5.4924369 255
-26.161818 1.3163605 5.5316229 255
-26.410418 1.2522087 5.5953112 255
-25.842045 1.3634186 6.450047 255
-26.065866 1.2613182 6.5096235 255
-26.332745 1.2291832 6.5788889 154
-25.754272 1.4201012 6.0594196 255
-25.980734 1.3078804 6.1062469 255
-26.346489 1.272522 6.1815958 255
-26.527468 1.2503891 6.2190757 255
-26.135574 1.3563919 5.4186792 255
-26.376455 1.2753487 5.4777822 255
-26.649101 1.2436409 5.5426588 255
-25.674551 1.4439545 6.2869534 106.5
-26.050053 1.2719154 6.3815961 255
-26.227324 1.246006 6.4252834 255
-26.479567 1.1839485 6.4882126 129
-25.566833 1.4839134 6.0363927 3
-25.782803 1.3643723 6.0792413 255
-26.010952 1.2641373 6.1247001 255
-26.286594 1.238224 6.1797357 255
-26.56039 1.2075195 6.2346406 255
-26.730167 1.1660347 6.2689042 255
-25.834044 1.3770142 5.8464079 255
-26.175905 1.3056297 5.9208412 255
-26.452713 1.2819557 5.9809313 255
-26.77647 1.1772995 6.0528564 30
-25.745167 1.3510895 5.822392 175.33333
-26.244667 1.222023 5.9397635 255
-26.693977 1.1612816 6.0446639 255
-25.631931 1.4038849 5.9250927 3
-25.77186 1.3201218 5.9581051 255
-26.08016 1.1959839 6.0300608 255
-26.52527 1.1301155 6.1322198 255
-26.797663 1.0960655 6.1949344 255
-25.801037 1.4007912 5.5328088 19
-25.955853 1.3391457 5.5709896 255
-26.276848 1.2316666 5.6497011 255
-26.64024 1.1862984 5.7362785 255
-26.825836 1.1679115 5.7804623 255
-26.166168 1.2933083 6.5973392 1.5
-25.598711 1.4330826 5.9234681 132.5
-25.808317 1.3061485 5.9648018 255
-26.16814 1.2579498 6.0356545 255
-26.446604 1.232254 6.0907321 255
-26.723152 1.2017822 6.1456566 255
-26.104031 1.3176041 6.0663018 255
-26.554356 1.2565804 6.1644821 243
-25.742567 1.3818703 5.9014182 255
-25.966501 1.2785339 5.9548507 255
-26.239223 1.2465973 6.017592 255
-26.605564 1.2046318 6.1021938 255
-26.762897 1.1449356 6.1398315 41
-25.673759 1.4548492 5.725174 218
-25.974033 1.3216248 5.7994227 255
-26.324278 1.2597809 5.8829379 255
-26.510092 1.242981 5.9268107 255
-26.763939 1.1804733 5.9884205 136.5
-25.720982 1.4179497 5.7845063 255
-26.032917 1.3047218 5.8637443 255
-26.396584 1.2650757 5.9528508 255
-26.583763 1.2513084 5.9986339 255
-26.750517 1.2074928 6.0407863 255
-26.266315 1.3394318 5.4652886 255
-26.62516 1.2897339 5.5559382 255
-26.070045 1.4099922 6.3767548 50.5
-26.299007 1.3177567 6.4390249 6
-25.815659 1.3743324 6.046052 255
-26.324854 1.2641106 6.1763387 255
-26.670773 1.1965141 6.2650471 48
-26.015013 1.3662491 5.467051 255
-26.236801 1.2654572 5.5269012 255
-26.596512 1.2183342 5.6181383 255
-26.756628 1.1663322 5.6605825 15
-25.708984 1.4321671 6.3484511 17
-25.868496 1.3830376 6.3911953 255
-26.186203 1.2810783 6.4768791 183
-26.48283 1.1483192 6.5586867 2
-25.582325 1.5313301 5.9626832 10
-25.848629 1.3695488 6.0591297 255
-26.358334 1.2784386 6.2256541 255
-26.605082 1.2192039 6.3080039 138.5
-25.883404 1.3431816 5.7304931 255
-26.140865 1.2956886 5.7962909 255
-26.502354 1.2547035 5.8877854 255
-26.760208 1.2037163 5.9544082 255
-25.7724 1.3550911 6.061686 255
-26.173567 1.2420044 6.1781764 255
-26.624229 1.1920547 6.3051105 255
-25.830093 1.3530197 5.7088552 255
-26.137306 1.2383385 5.7854543 255
-26.595673 1.1923256 5.8952451 255
-26.81509 1.088028 5.9515204 129
-26.283241 1.3191605 5.4321203 255
-26.641125 1.2700577 5.5199461 255
-26.173811 1.374157 6.3498907 98.666664
-26.485649 1.2660637 6.4320607 3
-25.553595 1.4364243 5.9525061 132.5
-26.100796 1.2482605 6.0736909 255
-26.471617 1.2153091 6.1543946 255
-26.648878 1.18647 6.1934218 255
-25.772886 1.4257545 5.6180701 255
-25.997404 1.3357048 5.6774712 255
-26.264893 1.3016701 5.7445555 255
-26.54114 1.2768593 5.8135376 255
-25.751892 1.422821 5.833251 255
-26.253252 1.3015213 5.9695272 255
-26.61141 1.2578964 6.0648365 255
-26.468592 1.2984657 5.2816916 1
-25.845217 1.3467636 6.0607204 187.66667
-26.162769 1.2483292 6.148221 255
-26.344336 1.2272987 6.196393 255
-26.73572 1.0920181 6.3057508 48.5
-25.736412 1.3984871 5.9809756 180.33333
-26.239679 1.2822456 6.1043835 255
-26.660332 1.1825943 6.2081819 131.5
-25.881908 1.4222565 5.5844879 255
-26.221634 1.3510323 5.6661725 255
-26.403868 1.3299103 5.7093148 255
-26.746435 1.2573853 5.7922397 55
-26.002134 1.3862801 6.5418572 2
-25.878548 1.4314995 5.4324889 17
-26.083307 1.313385 5.4848461 255
-26.330105 1.246994 5.5442719 255
-26.746395 1.1390419 5.6446991 131.5
-25.975273 1.3472061 6.3845782 36
-26.428036 1.1645088 6.4997263 1
-25.74519 1.333107 5.8293567 132.5
-25.939995 1.2046204 5.8837919 255
-26.214729 1.1734505 5.952703 255
-26.487244 1.1376305 6.0214701 255
-25.725227 1.4508553 5.6301022 15
-25.921227 1.3241882 5.6790247 255
-26.355675 1.2428017 5.779531 255
-26.539246 1.2205696 5.8216314 255
-26.887211 1.0293655 5.9081988 6
-25.927032 1.431591 5.5315742 255
-26.274851 1.3671188 5.6143918 255
-26.550177 1.3341827 5.6792116 255
-26.652323 1.2135277 5.7089286 9
-26.140989 1.3704872 6.5055885 38.666668
-25.949816 1.4044456 5.4015808 255
-26.266203 1.3038635 5.4879723 255
-26.540396 1.2704773 5.5590053 255
-26.71734 1.2401085 5.605607 255
-25.820475 1.4521446 6.2882366 4
-26.12335 1.3366623 6.3745522 65
-25.942774 1.2531319 5.723568 130.5
-26.140505 1.1298485 5.7792439 255
-26.407743 1.0866508 5.8473954 255
-26.747847 1.0075645 5.9358063 135.5
-25.794342 1.4212036 5.901495 199
-26.213928 1.3212662 6.005949 255
-26.629627 1.2122612 6.1104469 130
-25.799887 1.4459724 6.0702543 255
-26.150084 1.3847351 6.1600571 255
-26.528372 1.3523102 6.2555485 255
-26.631704 1.236042 6.2876406 9
-25.776365 1.5016174 5.5214701 255
-25.974051 1.3752327 5.5631723 255
-26.242041 1.3286972 5.6164513 255
-26.427858 1.304615 5.6532526 255
-26.725767 1.1709709 5.7150855 11
-26.081762 1.3618584 6.4841332 4
-26.15922 1.3481178 5.4078531 22
-26.368994 1.2389641 5.4670548 255
-26.629061 1.1848717 5.5345583 53
-25.785891 1.3398209 6.2293677 174
-26.179846 1.211216 6.3380775 255
-26.591536 1.0927925 6.4511943 129
-26.308685 1.2263222 5.2724509 255
-26.544903 1.1423225 5.3296943 255
-26.146713 1.1942863 6.1395335 225.33333
-26.575451 1.093689 6.2443228 255
-26.573704 1.3812523 5.2893324 31
-25.832253 1.481926 6.0294895 220.66667
-26.365162 1.3849068 6.1465702 255
-26.574123 1.2707596 6.1953821 128.5
-26.032032 1.4115295 5.4368448 3
-26.190105 1.3549995 5.4676542 53
-26.519688 1.2545471 5.5316267 95
-25.745335 1.4062462 6.2659726 137.5
-25.932064 1.2681007 6.3045926 255
-26.482162 1.1802597 6.4151201 171.66667
-25.726065 1.3087158 5.9700627 171.66667
-26.128439 1.1804008 6.0759172 255
-26.512323 1.1401176 6.1721001 255
-25.760153 1.4691162 5.9507675 131
-26.043848 1.3212624 6.0122008 255
-26.334742 1.2919655 6.0719452 255
-26.617865 1.2518578 6.1305304 255
-25.718616 1.5158615 5.6099095 5
-26.060745 1.3185577 5.6915679 255
-26.442581 1.2714882 5.7748895 255
-26.747299 1.1414032 5.8458896 128.5
-25.996899 1.3707466 6.5719299 9
-26.174271 1.3337669 6.6131306 8
-25.799875 1.5053444 5.789876 255
-26.153597 1.4341812 5.8753915 255
-26.612749 1.3576469 5.9858065 156.5
-25.662891 1.4608002 5.9938183 170.66667
-26.166363 1.3145981 6.1039133 255
-26.466934 1.288372 6.1675339 255
-26.117439 1.3512993 5.3910837 171
-26.43734 1.2318344 5.4608536 255
-26.626556 1.1997681 5.5002184 255
-26.701958 1.0558434 5.522521 2
-25.961308 1.298912 6.2522678 255
-26.304585 1.2033997 6.3287935 255
-26.522366 1.0910683 6.3793726 11
-26.566818 1.4148865 5.9715357 255
-25.902891 1.447319 5.5442348 255
-26.237688 1.3340111 5.6120615 255
-26.536158 1.2976341 5.6701555 255
-26.668486 1.2079086 5.6986632 17
-25.901716 1.4138718 6.4326439 132.5
-26.237116 1.3066139 6.503427 162
-25.900566 1.1439056 6.3262877 28
-25.919987 1.3121605 5.7796979 170.33333
-26.322361 1.1628494 5.8811722 255
-26.711571 1.1033249 5.9733567 206.5
-25.931204 1.4544411 5.4791441 255
-26.198851 1.3943214 5.556181 255
-26.389898 1.3649788 5.6096344 255
-26.740332 1.2738762 5.712224 36
-25.861065 1.4379082 5.6002598 255
-26.053211 1.3069191 5.671813 255
-26.443268 1.2552185 5.7887688 255
-26.72702 1.2057381 5.8754988 255
-25.752499 1.3736229 5.8314633 133
-26.034931 1.2247238 5.9385271 255
-26.535919 1.1704788 6.0976553 255
-26.76025 1.0659294 6.1808019 129
-26.17033 1.4497643 5.367197 255
-26.575081 1.3927956 5.4505882 255
-26.7523 1.2351685 5.4948888 2
-26.249947 1.4100266 6.2838373 1
-25.969442 1.3427086 6.2745633 255
-26.398935 1.3014488 6.3762016 255
-26.619516 1.1828117 6.4350553 13
-25.784832 1.4113407 5.5624657 255
-26.079327 1.2554417 5.6320891 255
-26.290726 1.232832 5.6764164 255
-26.609745 1.1981716 5.7433643 255
-26.817589 1.065649 5.7939963 8
-25.872261 1.4243984 5.5147476 255
-25.98151 1.3116894 5.5425272 255
-26.172016 1.2683773 5.582068 255
-26.482239 1.2221546 5.6450615 255
-26.780613 1.1637211 5.7064848 255
-26.084297 1.4567528 5.3539152 2
-26.456913 1.2542114 5.4269533 255
-26.686184 1.1360703 5.4716816 1
-25.988689 1.3300476 6.2379222 134.5
-26.332737 1.2078285 6.3063054 255
-26.582607 1.1072235 6.3563395 128.5
-25.942829 1.164793 5.8142033 255
-26.30262 1.0534267 5.8858552 255
-26.730118 0.99414635 5.9678845 255
-25.859253 1.2434883 5.7993817 255
-26.144417 1.0748558 5.8792963 255
-26.573307 1.0184383 5.9815016 255
-26.78854 0.98890114 6.0330434 255
-26.059698 1.1119366 6.110352 172
-26.4771 1.1066628 5.4186807 3
-25.882362 1.2446041 6.2222538 255
-26.243591 1.0395927 6.3096309 255
-26.577747 1.0037174 6.3813748 255
-26.022591 1.4695282 5.5220156 255
-26.104816 1.3458786 5.5520124 255
-26.294468 1.2966042 5.5972104 255
-26.72633 1.2312164 5.6956835 255
-26.360989 1.2978992 6.5256963 129.5
-25.738073 1.3585243 5.9230165 255
-26.0478 1.2186871 6.0144634 255
-26.389391 1.1871109 6.1005888 255
-26.636217 1.0885334 6.1724982 16
-26.450485 1.3278542 5.3304787 5
-25.843723 1.4222164 6.0881138 255
-26.134232 1.268301 6.1737161 255
-26.539284 1.1894894 6.2777991 132.5
-25.771959 1.4493618 6.0436435 255
-25.957632 1.3117905 6.0983782 255
-26.392687 1.2531338 6.201128 255
-26.721384 1.2078114 6.2791762 87
-26.34004 1.3768978 5.4320774 4
-26.491644 1.3016148 5.4712954 4
-25.779943 1.4791832 6.1975822 130.5
-25.91086 1.3049393 6.2430782 255
-26.238661 1.2623005 6.3198638 255
-26.566748 1.2174873 6.397172 255
-25.802988 1.4632759 5.455327 255
-26.065313 1.2899418 5.5287485 255
-26.28546 1.2619343 5.5781579 255
-26.699633 1.1851196 5.6740441 51
-26.125677 1.3747425 6.4267521 12
-25.937944 1.2760773 5.865612 255
-26.586 1.1848125 6.0212922 255
-25.719093 1.4923725 5.9549651 5
-25.808544 1.379755 5.9849963 255
-25.891029 1.262455 6.0140824 255
-26.119297 1.2402935 6.0659418 255
-26.651512 1.1640949 6.1897464 159.5
-26.245602 1.3255463 5.5984726 255
-26.481041 1.220293 5.6626592 251
-25.793087 1.4284515 6.3672514 255
-26.074234 1.271244 6.4504647 255
-26.485107 1.1951389 6.5555215 255
-25.849369 1.3703423 6.050508 255
-26.216942 1.2674198 6.1391397 255
-26.55378 1.2262955 6.2158294 255
-25.970535 1.3905964 5.5927286 255
-26.291168 1.2571411 5.6785617 255
-26.658558 1.1502533 5.7718806 129
-26.040611 1.405262 6.4829373 162
-26.193439 1.3343296 6.5265899 209
-26.339455 1.2584667 6.5693159 10
-25.652647 1.4614506 6.2745242 104
-25.814192 1.3136749 6.3168807 255
-26.33008 1.2168503 6.4286165 255
-26.546747 1.1824341 6.4753513 255
-25.721607 1.4821548 5.9637222 255
-25.822235 1.3806705 5.994061 255
-26.079376 1.2925091 6.056181 255
-26.434914 1.2621021 6.1338596 255
-26.650642 1.2272968 6.1826811 255
-25.832649 1.4269056 5.7490015 27
-25.957108 1.2903023 5.7949471 255
-26.425758 1.2034922 5.907732 255
-25.764946 1.4182892 5.8964906 2
-25.830379 1.3203716 5.9179873 255
-25.965908 1.3682041 5.7117419 255
-26.031464 1.4735088 5.7454991 255
-26.567272 1.3986235 5.8715224 255
-26.818111 1.3540525 5.9321413 255
-26.404547 1.3892326 5.3874655 54.5
-25.852671 1.5244961 5.9324274 40
-25.929644 1.433115 5.9597659 255
-26.492952 1.3081074 6.0931878 255
-26.751055 1.2895765 6.1762533 1
-26.187992 1.3346109 6.2711287 1
-26.575392 1.1763029 6.3207417 13
-26.438492 1.3097477 5.5471268 255
-26.098965 1.330801 5.5441551 132.5
-26.575279 1.2824898 6.2805638 163.5
-26.129215 1.3055401 6.2821455 255
-25.926659 1.2173023 6.2604036 2
-26.183517 1.2412338 6.2916174 57.5
-25.925159 1.1923943 6.2680354 55
-26.509987 1.2110825 6.3034439 33
-25.845798 1.1624222 6.0973468 255
-25.691925 1.1094017 6.0734482 31
-26.393026 1.106781 6.1296158 255
-26.626062 1.1724396 5.7345142 255
-26.456675 1.140789 5.713871 255
-26.044271 1.1593056 5.6832991 255
-26.335718 1.1444664 6.5732269 132
-25.98234 1.0931892 6.5365372 135
-26.037823 1.2828674 6.0758719 170.5
-26.542938 1.2908974 6.1375885 255
-26.480947 1.1950722 5.9129248 255
-25.93878 1.2439384 5.8601255 255
-25.746279 1.223053 5.8346343 255
-26.806448 1.3237152 5.9726248 128.5
-25.953712 1.2585678 5.6206622 255
-26.957865 1.280159 5.7484674 255
-26.669792 1.2553062 5.7084832 255
-26.131657 1.3015633 5.6502657 255
-26.247734 1.3223877 5.5974612 81
-26.954283 1.3332214 5.6816869 255
-26.521805 1.375782 5.6384859 255
-26.595665 1.2850342 5.7251859 255
-26.268814 1.3199158 5.6925607 255
-25.972528 1.3021355 5.6545877 255
-26.022919 1.1753235 5.8765559 255
-26.848738 1.1590614 5.9546261 255
-26.559084 1.1341667 5.922081 255
-26.24017 1.1554718 5.8944411 255
-26.559563 1.2792778 5.3903322 255
-26.186117 1.2199554 5.3423829 19
-26.393322 1.2397003 6.3744831 255
-26.025433 1.169548 6.3276582 7
-26.758987 1.3105965 6.4213858 3
-26.722603 1.3219681 5.4153676 170
-26.524305 1.2788811 6.4000506 22
-25.93582 1.2755623 5.6470232 255
-26.434649 1.287178 5.7256346 255
-26.11058 1.3234863 5.6827297 255
-26.753942 1.2560616 5.7688627 255
-25.88579 1.2784996 5.8318167 255
-26.192789 1.2710342 5.8812323 255
-26.618008 1.2290306 5.9435387 255
-26.475157 1.336853 5.9383006 22
-26.785683 1.3213654 5.9731803 255
-26.415119 1.4025345 5.2544489 2
-26.072397 1.2858849 6.2109666 255
-26.241436 1.344677 6.2406468 255
-26.849876 1.3320808 6.3096561 255
-26.650524 1.331234 6.2861247 255
-26.189651 1.3060226 5.6971836 255
-25.872213 1.3322868 5.6650591 255
-26.7075 1.2758865 5.7519326 255
-25.624905 1.1887093 5.990027 13
-26.374289 1.2913704 6.1066351 6
-25.991131 1.2571144 6.0500956 255
-26.669043 1.2971954 5.408803 88
-26.471243 1.2945824 5.3809328 255
-26.477158 1.241375 6.3997498 255
-26.181829 1.2331429 6.3597426 172
-26.652645 1.2857513 6.4307022 6
-26.179573 1.3089218 5.503499 255
-26.695877 1.2751923 5.5679369 255
-26.939817 1.3786659 5.6178913 130
-25.95388 1.1949844 5.348454 7
-26.336468 1.2285805 5.4000878 255
-26.147106 1.2086067 5.3739953 255
-26.162987 1.179409 6.39677 178
-25.971552 1.1627235 6.3722119 27
-25.671844 1.1376038 5.4495549 32
-26.053633 1.1713982 5.5070124 255
-26.449738 1.1745872 5.5616302 255
-25.963215 1.1180458 6.5144477 28
-26.238426 1.1628113 6.5578289 2
-25.99851 1.2465477 5.7301807 255
-26.606524 1.2187805 5.8176889 255
-26.291945 1.2547417 5.776104 255
-26.899775 1.2218399 5.8628855 255
-26.113934 1.2569809 5.3251219 130
-26.488457 1.2929649 5.4005117 255
-26.890934 1.4671593 5.5060401 2
-26.320171 1.2925072 6.4073277 255
-26.149096 1.241951 6.3672371 28
-26.526897 1.2712212 6.4396744 21
-26.236506 1.2394981 5.8891544 255
-25.924477 1.2707062 5.8470297 255
-26.542498 1.2174034 5.932044 255
-25.73653 1.2502098 5.814909 255
-25.710911 1.1914864 6.0077257 255
-26.324053 1.1509018 6.085228 255
-26.021383 1.164856 6.0458727 255
-26.511322 1.1691475 6.1142426 255
-25.637285 1.1296883 6.1115322 3
-26.078993 1.2345734 6.1993003 255
-25.795511 1.20924 6.1504426 255
-26.576326 1.2210312 6.2748384 255
-26.722914 1.3227806 6.3161116 12
-26.166737 1.1528282 6.2272854 255
-26.75362 1.3481979 6.3700624 2
-25.682724 1.1419144 6.1386824 173.66667
-26.608574 1.2574692 6.0488057 255
-25.822983 1.2710533 5.9099879 255
-26.099957 1.3049889 5.9658961 255
-26.531321 1.1734276 6.3988218 255
-25.612213 1.0676842 6.2121248 2
-25.846876 1.1872559 6.277318 255
-26.134966 1.1942825 6.3308043 255
-26.561316 1.2185059 5.9699874 255
-25.774185 1.2498398 5.8229957 255
-26.160536 1.2516212 5.8982196 255
-26.267233 1.2455292 5.5761209 255
-25.998943 1.2005768 5.5113902 255
-26.670013 1.2034721 5.6531978 255
-26.265291 1.304409 5.7492428 255
-26.083584 1.2843437 5.6978774 255
-26.566805 1.2676392 5.8199358 255
-26.864471 1.23666 5.8908796 255
-26.057112 1.2472763 6.1342568 255
-26.343086 1.2483521 6.2011571 255
-26.708183 1.2824783 6.2934723 30
-26.843584 1.4062424 6.3504629 1
-26.134871 1.2521858 5.2547708 75
-26.40052 1.2944717 5.3257203 255
-26.680563 1.3026466 5.3938389 20
-25.831118 1.2271118 6.248909 96
-26.103666 1.255127 6.3173409 255
-26.468203 1.2873192 6.4081016 128.5
-26.075237 1.2156258 5.3343368 67
-26.435137 1.2608147 5.4314208 255
-26.619761 1.2714729 5.4789166 13
-25.680361 1.1707993 6.2892504 52
-26.140818 1.2064781 6.4065452 255
-26.402306 1.2589912 6.4801292 128.5
-25.863279 1.2552071 5.8673158 255
-26.441648 1.2347794 6.0103464 255
-26.143938 1.2657928 5.9408751 255
-26.833338 1.2005043 6.1032853 255
-25.639769 1.3318024 5.6507535 2
-25.932171 1.3193779 5.7185221 255
-26.316196 1.3120003 5.8094573 255
-26.894953 1.2855949 5.944047 255
-25.958624 1.2992058 5.5398536 255
-26.250685 1.2872276 5.6008863 255
-26.834812 1.2550011 5.721962 255
-25.759083 1.1483498 5.3928447 12
-26.318153 1.177742 5.5301499 255
-25.939314 1.1734886 5.4399314 255
-26.508842 1.1751595 5.5747871 255
-26.030083 1.1373749 6.5143094 29
-25.858568 1.1615295 5.3561788 4
-26.196369 1.2591362 5.4637938 255
-26.01664 1.2363739 5.4121337 255
-26.676279 1.2374649 5.5860782 255
-26.260275 1.2098923 6.5481935 1
-26.141733 1.2459221 5.5013533 255
-26.522863 1.2389183 5.5961285 255
-25.935818 1.1932259 6.5160208 9
-26.124193 1.1964607 6.5629544 50
-25.91408 1.3029175 5.9714565 255
-26.207087 1.2806129 6.0428443 255
-26.597143 1.2478981 6.1374588 255
-26.847527 1.3278046 6.2183051 22
-26.057995 1.2689705 5.4705281 255
-26.542292 1.2395859 5.5871534 255
-26.345236 1.2607956 5.5413661 255
-26.724621 1.2548103 5.6360159 255
-26.141924 1.2071037 6.5570388 3.5
-26.249159 1.1677322 5.9927297 255
-25.955294 1.2007637 5.914701 255
-26.535057 1.1514778 6.0720711 255
-26.779083 1.2416801 6.161489 15
-26.034885 1.3150024 5.7200789 255
-26.518351 1.2680473 5.8580403 255
-26.326033 1.2851601 5.8028007 255
-26.710415 1.2502289 5.9131017 255
-26.001713 1.3245964 5.4128003 255
-26.281954 1.3291016 5.4907074 255
-26.674036 1.2824974 5.5899653 255
-25.897671 1.2918205 6.0108252 255
-26.191341 1.268322 6.0770946 255
-26.577873 1.2458572 6.166049 255
-26.827894 1.3348656 6.2426996 12
-25.788105 1.2118721 5.9651461 255
-26.088116 1.1784782 6.0210066 255
-26.578434 1.14188 6.1155901 255
-26.38611 1.1473656 6.0769472 255
-26.754223 1.1806564 6.1583719 78
-25.615923 1.1996613 5.851027 255
-26.099686 1.1742821 5.9672012 255
-26.579472 1.1523857 6.0832772 223.5
-26.299952 1.299736 5.4586425 255
-26.120119 1.2772331 5.4051805 255
-26.777954 1.2723465 5.5851707 255
-26.348944 1.2815628 6.5549412 1
-25.95682 1.3622971 5.5598798 255
-26.442492 1.3337631 5.65663 255
-26.247084 1.3494873 5.6183038 255
-26.638929 1.3135643 5.6945481 255
-25.916658 1.1822433 6.4079032 255
-26.209713 1.1539116 6.4702306 255
-25.998266 1.356514 5.477931 255
-26.299448 1.3136177 5.5347729 255
-26.693947 1.2716522 5.6115856 255
-26.480114 1.4345703 5.9495969 94.5
-26.778147 1.3992081 6.0010505 16
-25.735861 1.2392311 5.5148053 255
-26.031025 1.2098808 5.5692625 255
-26.513853 1.1807327 5.6616354 210.5
-26.354435 1.3152924 5.6563158 255
-26.062862 1.3346558 5.6010365 255
-26.652624 1.2880554 5.7119775 255
-26.943142 1.282238 5.7694297 255
-26.382158 1.3780174 5.581171 8
-26.657221 1.4024582 5.6405663 255
-26.947384 1.3760948 5.6958427 14
-26.340443 1.3394623 6.6474519 14
-25.972452 1.2777672 5.7881107 255
-26.359612 1.2482567 5.8515644 255
-26.737528 1.2427216 5.9172659 255
-25.995609 1.3288879 5.8099236 255
-26.288094 1.2994614 5.858284 255
-26.761787 1.2878838 5.942287 255
-26.574112 1.2877083 5.9082294 255
-25.817606 1.2197571 5.453548 131.5
-26.374874 1.2400246 5.5681682 255
-26.656662 1.2366867 5.624589 255
-26.135935 1.1915359 6.6080751 8
-26.765192 1.2512932 6.2008572 255
-25.906601 1.2901764 6.0315866 255
-26.481817 1.2581749 6.1438007 255
-26.190847 1.2862511 6.0887523 255
-26.786785 1.2884369 6.087193 255
-25.838923 1.3040504 5.9046578 255
-26.31337 1.2981987 5.9959693 255
-26.601061 1.2814331 6.0497031 255
-25.922304 1.3001404 5.8141131 255
-26.503302 1.2553902 5.9255033 255
-26.873575 1.2750015 6.0042377 140.5
-26.064194 1.304039 5.6380706 255
-26.549294 1.2598152 5.7336841 255
-26.354046 1.2826195 5.6958566 255
-26.828377 1.2681503 5.7940316 255
-25.978291 1.3170052 5.5480776 255
-26.363613 1.2925644 5.6254873 255
-26.653425 1.2676239 5.6830401 255
-26.92211 1.3100815 5.7462344 248
-25.729113 1.2609978 5.9614286 255
-26.101229 1.2732468 6.0459285 255
-26.669901 1.2505417 6.1692662 255
-26.843077 1.2945824 6.215179 31
-25.849833 1.2599373 5.5238876 255
-26.221521 1.2692566 5.612102 255
-26.512915 1.2327423 5.6747866 255
-25.970882 1.2629852 6.12745 255
-25.788469 1.246666 6.0849776 255
-26.250294 1.2672081 6.1894493 255
-26.525936 1.2815781 6.2524948 255
-25.999451 1.2730751 5.6354051 255
-26.382368 1.2455978 5.714519 255
-26.758558 1.234539 5.7951446 255
-26.401562 1.2819252 5.2968245 255
-26.677765 1.2926521 5.3601356 255
-25.766933 1.235424 6.2518744 111
-26.137686 1.2442703 6.3338728 255
-26.407187 1.2759628 6.3979139 215
-25.996473 1.2708054 5.5574145 255
-26.473721 1.2332535 5.6568837 255
-26.281836 1.2526169 5.6174207 255
-26.748302 1.244854 5.7195277 255
-25.674877 1.2366371 5.6736736 255
-26.132797 1.2615929 5.7822323 255
-26.515476 1.2243309 5.8644667 255
-26.789524 1.2352448 5.929595 255
-26.075947 1.2756538 5.3172097 8
-26.535393 1.2940636 5.428771 255
-25.714943 1.2028351 6.3281555 40
-26.260948 1.2407112 6.4609013 255
-26.530188 1.2690697 6.5284371 60
-25.723381 1.2744904 5.657279 255
-25.996105 1.2987709 5.7246447 255
-26.474974 1.2563515 5.830162 255
-26.278177 1.2913666 5.789465 255
-26.752138 1.2596626 5.8960257 255
-26.43099 1.2817078 5.4055467 255
-26.706097 1.2912941 5.4733548 255
-25.696634 1.202652 6.325387 9.5
-26.1451 1.2543144 6.4393306 193
-26.422974 1.2544479 6.5049653 24
-25.870987 1.2341537 6.1191473 255
-26.42617 1.2364235 6.2532587 255
-26.613642 1.226944 6.297123 255
-26.132891 1.2746658 5.2735138 34
-26.410027 1.2801552 5.3410892 186.5
-25.679802 1.1863785 6.2592077 35
-26.040215 1.2224159 6.3500595 255
-25.876957 1.2326431 5.4125366 211
-26.248123 1.2377396 5.5012326 255
-26.714518 1.2301178 5.6112261 255
-25.882757 1.1732368 6.5112901 9
-26.244076 1.2058296 6.6009326 6
-25.911051 1.237236 5.3374176 255
-26.276035 1.2611008 5.428412 255
-26.557726 1.2505913 5.4945683 255
-25.999826 1.202034 6.4600487 36
-26.277185 1.2049217 6.5258517 18.5
-25.955223 1.28088 5.6592455 255
-26.247066 1.24123 5.7229366 255
-26.625233 1.218483 5.8104196 255
-26.886292 1.2727737 5.8822355 32
-26.302299 1.2711945 5.7008567 255
-26.112665 1.282814 5.6569171 255
-26.588058 1.2467308 5.7662215 255
-26.865232 1.2476463 5.833777 255
-26.123623 1.2789345 5.6431499 255
-26.411671 1.247551 5.7094874 255
-26.783655 1.2403412 5.8009 255
-26.033119 1.2695084 5.2889862 123
-26.401138 1.2762299 5.3853569 255
-26.584949 1.2786446 5.4335313 255
-25.737608 1.21035 6.3169117 18
-26.095781 1.2475395 6.4143467 255
-26.368992 1.2585411 6.486002 123
-26.376015 1.2990608 5.2425532 2.5
-25.62866 1.2042999 6.1478028 73
-25.989573 1.2333374 6.2446051 255
-26.540062 1.2416954 6.38695 255
-25.801718 1.237896 5.3690419 32
-26.070883 1.2670135 5.4428153 255
-26.538349 1.2502213 5.5608339 255
-26.147327 1.2024269 6.5642052 10
-25.997389 1.2769051 5.6082048 255
-26.469456 1.243576 5.7281504 255
-25.97299 1.2683983 5.6156106 255
-26.444613 1.2380066 5.7345095 255
-26.889597 1.2874336 5.8603716 136
-25.910452 1.2743301 5.7245603 255
-26.47921 1.2333679 5.8624625 255
-26.846952 1.2365303 5.9571548 255
-27.00897 1.3097305 6.010891 5
-25.864164 1.2520866 5.5057206 177.66667
-26.327148 1.2538033 5.624187 255
-26.792723 1.2400513 5.7416291 255
-25.968231 1.2365227 5.3174477 255
-26.148754 1.2518997 5.3663359 255
-26.70385 1.2485428 5.5094357 255
-26.859821 1.3416214 5.5647821 2
-25.855766 1.1869431 6.3932858 34.666668
-26.400627 1.2156143 6.5364923 8
-26.082607 1.2328796 5.3346591 255
-26.540247 1.2507515 5.4523296 255
-25.790134 1.1905365 6.3656592 68.5
-26.237947 1.2388992 6.48417 125
-26.424307 1.2335663 6.5293169 13
-25.939417 1.2380257 5.339231 174
-26.402382 1.2419167 5.4548407 255
-26.679817 1.2418251 5.5241528 255
-25.745489 1.1847382 6.3933249 9
-26.116474 1.1845093 6.4836016 22
-26.381321 1.2244263 6.5553741 6
-25.903179 1.2542534 5.4632506 255
-26.368538 1.2503891 5.5789089 255
-26.648874 1.2406769 5.6478209 255
-26.078835 1.1976585 6.6082292 8
-25.730755 1.2464905 5.4824724 255
-26.00304 1.2686119 5.5534592 255
-26.478462 1.2314606 5.6659746 255
-26.755201 1.2326126 5.7355003 255
-25.859667 1.2499352 5.4025335 144.5
-26.222876 1.2772598 5.4968476 255
-26.693075 1.2536583 5.6104054 255
-25.941343 1.2050667 6.5257373 6.5
-26.21475 1.2192688 6.5949078 5
-26.058964 1.246254 5.3708715 255
-26.426847 1.2572708 5.463047 255
-26.048386 1.2083778 6.4710131 33
-26.412163 1.2292023 6.5625553 7
-26.050175 1.2435303 5.280859 152.5
-26.416563 1.2584038 5.3745656 255
-25.67218 1.1833496 6.2881951 13
-26.030691 1.2227287 6.3824725 217
-26.580904 1.2365303 6.5200558 4
-26.325001 1.278553 5.254283 45
-25.583527 1.1763077 6.1616611 11
-25.938257 1.2262344 6.2589846 255
-26.482716 1.2571793 6.4014125 131
-26.035826 1.2411194 5.2925057 255
-26.311327 1.2483673 5.3645773 255
-25.917948 1.2099609 6.3699303 143.33333
-26.468472 1.2203865 6.5112824 11
-25.896601 1.2515526 5.4518337 255
-26.267593 1.2539291 5.5440826 255
-26.73361 1.2433777 5.6585274 255
-25.988888 1.1735115 6.5718913 6.5
-25.835217 1.2677841 5.6994662 255
-26.209476 1.2629395 5.7887869 255
-26.682947 1.2318878 5.8985023 255
-26.869625 1.2259178 5.9429917 255
-25.834431 1.2516632 5.8778973 255
-26.11277 1.2561646 5.9450808 255
-26.585022 1.2314911 6.0544186 255
-26.773077 1.221962 6.0982351 255
-25.974922 1.2697411 5.668426 255
-26.452953 1.2274437 5.7778716 255
-26.729004 1.2327347 5.8462119 255
-25.915606 1.2376328 5.3458738 137.5
-26.375973 1.2514038 5.4610682 255
-26.655409 1.2458229 5.5292397 255
-25.727409 1.175499 6.399766 7
-26.09383 1.1907349 6.4905667 21
-26.268574 1.2240334 6.5385666 13
-25.875607 1.2295227 5.3342595 143
-26.240114 1.2532578 5.4276595 255
-26.522629 1.2388535 5.4953156 255
-26.793148 1.2613029 5.5659852 255
-25.958443 1.1884575 6.4573765 23
-26.230663 1.2064514 6.5264482 17.5
-25.767834 1.2439613 5.4523296 255
-26.130056 1.2756958 5.5469899 255
-26.418032 1.2444572 5.6136799 255
-26.785856 1.2508087 5.7066078 255
-26.260262 1.2652893 5.2501302 255
-26.439854 1.283844 5.2979307 255
-25.614243 1.1717567 6.1853418 11
-25.97191 1.2144547 6.2799287 255
-26.242159 1.2381744 6.350316 255
-26.398098 1.3014717 5.1787415 2
-25.572105 1.1864128 6.0651712 21
-25.930952 1.2257156 6.1599159 255
-26.207108 1.2307129 6.22894 255
-26.48064 1.2420464 6.298666 255
-25.887548 1.22929 6.122911 255
-26.163376 1.2365723 6.1911659 255
-26.532688 1.2378387 6.2815871 255
-25.883331 1.25037 6.0278869 255
-26.167612 1.2312584 6.0936465 255
-26.540417 1.2213478 6.1828504 255
-25.792694 1.2296448 6.0241857 255
-26.064928 1.2488556 6.093802 255
-26.440834 1.2299194 6.1828146 255
-25.848494 1.2308807 6.1007695 255
-26.124588 1.2385635 6.1681952 255
-26.495438 1.2365494 6.2571678 255
-25.906872 1.2350235 6.1411924 255
-26.184422 1.2387848 6.206913 255
-26.548576 1.2594604 6.2961988 172.5
-26.407986 1.2924347 5.2242475 6
-25.855671 1.2219887 6.1879077 255
-26.129524 1.2372475 6.2553124 255
-26.404373 1.2474747 6.3223825 255
-26.29635 1.2540512 5.3398347 255
-26.570845 1.2665253 5.4084668 255
-25.741892 1.1861267 6.3037391 28
-26.009129 1.2226639 6.3732781 255
-26.373871 1.242115 6.4634871 118
-25.803871 1.2714233 5.6469574 255
-26.172552 1.2836761 5.7389383 255
-26.460749 1.2520866 5.8046036 255
-26.826077 1.267498 5.8971605 255
-26.004496 1.2923164 5.7438021 255
-26.478724 1.2591553 5.856916 255
-26.929382 1.2956238 5.9762702 94
-25.725754 1.2425385 6.1305299 70
-25.915525 1.2316322 6.1756682 255
-26.367168 1.2718239 6.2948961 255
-25.557272 1.1602669 6.0651994 11
-25.820612 1.208889 6.1409774 255
-26.093647 1.2259369 6.2140422 255
-26.639114 1.2556686 6.3601584 31
-26.207125 1.2241631 5.4855361 255
-26.486353 1.2191505 5.5595598 255
-25.90773 1.155632 6.4995308 12
-26.278173 1.1537209 6.5966754 6
-26.336603 1.2748795 5.2975831 255
-26.614023 1.2815514 5.3693075 255
-25.775564 1.2307167 6.2468724 35
-26.053858 1.236824 6.3172112 255
-26.420368 1.2561646 6.4121823 108
-25.827599 1.2709961 5.7068262 255
-26.300579 1.2552338 5.8171501 255
-26.586441 1.2349167 5.8824844 255
-27.015831 1.3520012 6.0047112 6
-26.859966 1.2226601 6.0510001 255
-25.90976 1.2751694 5.8365636 255
-26.387854 1.2432785 5.9432325 255
-26.843365 1.27771 6.0559525 130.5
-25.703894 1.231617 6.0724669 130
-26.063772 1.2784653 6.1664267 255
-26.347807 1.2664146 6.2327366 255
-26.431829 1.3587379 5.2392125 27
-25.732834 1.2180557 6.147244 7
-26.08997 1.276516 6.238626 255
-26.362846 1.3025436 6.3057103 255
-26.096504 1.3048363 5.4847631 255
-26.48407 1.2718315 5.5625901 255
-26.77037 1.2577972 5.6218524 255
-26.122744 1.3142738 5.3177986 234
-26.497004 1.3252068 5.3972616 255
-25.98284 1.275547 6.3685937 14
-26.264393 1.2801247 6.4265842 43.5
-26.554974 1.2529373 6.4816098 3
-26.024172 1.2763557 5.2940202 255
-26.300238 1.301281 5.353622 255
-26.681458 1.2885475 5.4296951 255
-25.981962 1.2436371 6.3645344 12
-26.262457 1.2523804 6.4216828 26.5
-26.54969 1.2369995 6.4766121 2
-25.869312 1.2219887 5.3621387 137
-26.147215 1.2490845 5.4111314 255
-26.532679 1.2333412 5.4726076 255
-25.781887 1.1689339 6.4152155 7
-26.058735 1.1972237 6.4633732 53.5
-26.202475 1.2587128 5.2554069 255
-26.489676 1.2539024 5.3006144 255
-25.737602 1.2128181 6.2490401 2
-26.117456 1.2180824 6.3081818 55
-26.303619 1.2311592 6.3388171 17
-25.818092 1.2615967 5.9802918 255
-26.192633 1.2818756 6.0341115 255
-26.47965 1.2743835 6.0726943 255
-26.766272 1.2655945 6.1112971 255
-25.84428 1.2949028 6.0373716 255
-26.121597 1.3236275 6.0749125 255
-26.511131 1.2944336 6.1192093 255
-26.796495 1.2913857 6.1543074 255
-26.731247 1.3421173 5.6853924 255
-26.34075 1.3720779 5.6426663 255
-25.850126 1.3233452 5.5371308 255
-26.032703 1.3493958 5.5586133 255
-26.519157 1.3125992 5.6045814 255
-26.803917 1.310051 5.6339917 255
-26.291389 1.2774582 6.6448541 6
-25.836325 1.3300934 5.7265072 255
-26.119001 1.3400726 5.7577229 255
-26.606846 1.2965126 5.8051214 255
-26.794661 1.3008003 5.8260756 255
-26.971058 1.3426971 5.8503361 51
-25.885059 1.2515068 6.1114521 255
-26.167906 1.2562943 6.1497669 255
-26.547094 1.2522926 6.2002058 255
-26.497612 1.3000069 5.6451511 255
-26.778408 1.3019447 5.6988983 255
-25.836121 1.3066673 5.5210729 255
-26.207224 1.3273048 5.5939069 255
-26.31139 1.2546501 6.1434002 255
-26.501461 1.2507744 6.1742468 255
-25.755632 1.2126389 6.0464611 130
-26.123468 1.2502556 6.1118603 255
-26.255333 1.0260124 6.4163203 14
-26.252802 1.0517349 6.1260781 255
-25.838327 1.2657623 5.9145212 255
-26.123093 1.273159 5.945838 255
-26.511862 1.2483635 5.9848213 255
-26.033215 1.3563004 5.7647452 255
-26.518963 1.3092804 5.8350148 255
-26.804085 1.2985001 5.878798 255
-25.954069 1.2528877 5.4123535 255
-26.435844 1.2176056 5.4800806 255
-26.623596 1.2184296 5.5084267 255
-25.987104 1.1750374 6.470233 2.5
-25.832838 1.2001534 5.773469 255
-26.215277 1.1764603 5.8283892 255
-26.594168 1.1597481 5.8841209 255
-25.972197 1.2639809 5.3281522 131
-26.344381 1.2761803 5.3831997 255
-26.531887 1.2755775 5.4102902 255
-25.816935 1.2103348 6.3580246 13
-25.996883 1.2377968 6.3867779 155
-26.372715 1.2333603 6.4388261 119
-26.813034 1.2548332 5.8637753 255
-25.850037 1.3136635 5.775557 255
-26.133678 1.3187943 5.8038597 255
-26.427456 1.2841797 5.8288546 255
-25.859646 1.3316345 5.7703443 255
-26.239151 1.3179665 5.819077 255
-26.528154 1.2878151 5.8540673 255
-26.894409 1.3160019 5.9066787 38
-25.743149 1.1759682 5.760726 255
-26.124769 1.1527596 5.8072624 255
-26.506041 1.1250343 5.85359 255
-26.769176 1.1895142 5.8957176 15
-25.768158 1.2503471 5.4169188 2
-26.218262 1.3148956 5.4832182 255
-26.602974 1.2660904 5.5286427 255
-26.871872 1.304821 5.5688057 197
-26.156424 1.2396469 6.51754 3
-26.333597 1.2741928 6.5447168 2
-25.98712 1.3808556 5.8341489 255
-26.461235 1.3476639 5.8848038 255
-26.745684 1.3230019 5.9149456 255
-26.360733 1.3744926 5.2191963 255
-25.727711 1.1319733 5.4512544 204
-26.004549 1.1404648 5.485496 255
-26.564926 1.1221619 5.5515122 255
-26.735958 1.1808243 5.5788465 2
-25.868502 1.0825195 6.5080562 3
-26.054329 1.0809402 6.529572 6
-25.856419 1.3146248 5.6944518 255
-26.231503 1.2923965 5.7394176 255
-26.608059 1.2579422 5.7835283 255
-26.064156 1.3759956 5.4364953 174
-26.340471 1.3786469 5.4589467 255
-26.809294 1.3382568 5.4931908 255
-26.421921 1.3263245 6.4931598 7
-25.996866 1.3430519 5.3200979 255
-26.276077 1.3197823 5.3558445 255
-26.735258 1.3026352 5.4173293 173
-26.117689 1.2587433 6.3656025 1.5
-25.697285 1.2359085 5.4546595 255
-25.96907 1.2326584 5.5011315 255
-26.427811 1.1935921 5.5761809 255
-26.780386 1.2268753 5.641633 31
-25.597225 1.2153511 5.975976 131.5
-25.952305 1.2377052 6.0375409 255
-26.403538 1.2253876 6.1113653 255
-25.915857 1.2896538 5.6695595 255
-26.281479 1.2571793 5.7293239 255
-26.64592 1.2242393 5.7892337 255
-26.90461 1.2719116 5.8405929 17
-26.48735 1.2474594 5.9523578 255
-26.760481 1.2261391 5.9914794 255
-27.013958 1.3094673 6.0400777 6
-25.586609 1.2473106 5.8165951 8
-25.757221 1.2961655 5.8478456 255
-26.121473 1.2788849 5.9006243 255
-26.025221 1.1681023 5.6971617 255
-26.30023 1.1389618 5.7360368 255
-26.481785 1.1265526 5.762599 255
-26.827078 1.1940269 5.8237576 6
-25.660648 1.1912575 5.6441684 255
-26.007666 1.2682381 5.5537739 255
-26.281103 1.2384605 5.5960283 255
-26.809586 1.2713928 5.688385 91.666664
-25.69154 1.2542763 5.4560733 10
-26.037535 1.294384 5.5378108 255
-26.575027 1.244957 5.6518297 255
-26.835331 1.265213 5.7126918 133
-25.845659 1.3031502 5.9767556 255
-26.20075 1.2818832 6.0499206 255
-26.644287 1.2491379 6.1410828 255
-25.674622 1.1903343 5.8736954 255
-26.031923 1.1618309 5.9384637 255
-26.388525 1.1309738 6.0032182 255
-26.646803 1.1603165 6.0566101 129.5
-25.886793 1.2897034 6.125741 255
-26.239864 1.2690468 6.1960998 255
-26.503635 1.2565346 6.24928 255
-26.671612 1.2986336 6.2895293 11
-26.065699 1.2874451 5.7249284 255
-26.854176 1.2548904 5.9016051 133.5
-26.03285 1.2839127 5.3096914 255
-26.645119 1.2472153 5.4463558 255
-25.790447 1.2447701 6.2837458 6
-26.224174 1.242485 6.3820248 55
-26.433681 1.2140617 5.3391218 255
-26.773273 1.2814178 5.418129 4
-25.870426 1.1824989 6.2391443 3
-25.828365 1.3209686 5.9834991 255
-26.174679 1.3075714 6.0665026 255
-26.523848 1.265377 6.1470175 255
-26.871262 1.2304993 6.2283149 255
-25.920708 1.379303 5.363152 157
-26.179691 1.3852692 5.4269228 255
-26.619328 1.3239403 5.5276804 255
-26.317104 1.3563156 5.2727456 255
-26.664948 1.3272858 5.3399992 255
-25.777601 1.343277 6.180191 4
-26.036821 1.3370132 6.2309361 102
-26.468857 1.3198471 6.3152685 62.666668
-25.601295 1.1396255 6.2100148 255
-25.773338 1.1606064 6.22016 255
-26.213503 1.1275826 6.2380195 255
-26.476902 1.1085663 6.2491031 255
-25.808239 1.2877731 5.6574244 130
-26.242884 1.2796059 5.7267361 255
-26.506264 1.2451668 5.7659478 255
-26.853085 1.2363739 5.8216929 134.5
-26.036345 1.2420387 5.5152626 255
-26.391117 1.2138863 5.5423131 255
-26.742722 1.2112579 5.5716305 128.5
-25.949703 1.2119064 6.4903998 20.5
-26.30365 1.1897774 6.516943 35
-25.944466 1.2325287 5.333847 255
-26.21184 1.2030182 5.3541279 255
-26.563646 1.2074432 5.3846397 129.5
-25.858349 1.1799393 6.30969 8
-26.035044 1.1763535 6.3241014 24
-25.665205 1.251545 5.8632011 255
-25.927887 1.2431297 5.8762531 255
-26.279533 1.2108841 5.8920879 255
-26.717358 1.1789207 5.9130363 255
-26.053944 1.30233 5.3299298 255
-26.488533 1.2618942 5.3554025 255
-26.746983 1.2629318 5.3729248 135
-26.247587 1.229538 6.3253231 3
-25.767315 1.2221336 6.002656 255
-26.113018 1.2018967 6.0165715 255
-26.63155 1.1565437 6.0368547 255
-26.079411 1.4045601 5.4449501 255
-26.601208 1.3622246 5.4575224 255
-26.863155 1.341095 5.4643126 255
-26.396675 1.3363075 6.4366951 9
-26.735767 1.3659286 6.4500818 5
-26.306137 1.1996002 5.4649673 255
-25.791735 1.2357712 5.4090066 255
-26.190416 1.1772957 6.4385457 134.5
-26.446156 1.1684074 6.4671564 4
-25.693588 1.3641052 5.8805485 5
-25.950686 1.3566513 5.9171867 255
