# .PCD v0.7 - Point Cloud Data file format
VERSION 0.7
FIELDS x y z intensity
SIZE 4 4 4 4
TYPE F F F F
COUNT 1 1 1 1
WIDTH 1366
HEIGHT 1
VIEWPOINT 0 0 0 1 0 0 0
POINTS 1366
DATA ascii
17.342379 -20.019451 1.5009322 255
17.38409 -19.883423 1.1577264 174.33333
17.225517 -19.508373 1.2028667 255
17.033012 -19.159817 1.2488271 7
17.378506 -19.832943 2.0859652 197
17.229713 -19.451656 2.1335564 255
17.148628 -19.214947 2.1628323 47
17.203512 -19.44973 1.3470632 255
17.059053 -19.165897 1.3905631 12
17.15848 -19.36129 1.3371385 174.66667
17.199129 -19.35004 2.2510962 255
17.182348 -19.514301 1.6977761 255
17.30098 -19.956112 1.8528597 255
17.143005 -19.482193 1.9090455 255
17.431995 -20.167236 1.2574208 14
17.136364 -19.500397 1.3292964 255
17.005909 -19.303459 1.3536303 7
17.420959 -20.103535 2.1839306 255
17.164589 -19.50877 2.2511408 255
17.350876 -20.048504 1.7757354 136.5
17.119804 -19.427879 1.8349156 255
17.30954 -20.006416 1.4188019 255
17.130444 -19.542564 1.4541947 255
17.312061 -19.885582 2.3372693 238.66667
17.484833 -20.284004 1.4354675 4
17.226547 -19.888824 1.4679344 255
17.372105 -20.257236 1.6647403 255
17.302277 -20.113457 1.6753423 255
17.210228 -19.987465 1.6857183 255
17.086235 -19.584534 1.714113 142.5
17.261551 -20.006355 1.7008522 255
17.146717 -19.696209 1.7307622 255
17.105389 -19.527187 1.7462537 255
17.303337 -19.927059 2.1137698 255
17.282253 -19.904766 1.300621 255
17.071095 -19.361122 1.3537054 130.5
17.440521 -20.086731 2.1859026 118
17.057213 -19.278709 2.2725391 19.5
17.136934 -19.455559 1.3298589 255
17.178732 -19.511417 2.2330885 255
17.21909 -20.006359 1.474997 255
17.146587 -19.753681 1.4847379 255
17.069687 -19.503544 1.494555 255
17.142477 -19.9631 0.94699371 176
17.101076 -19.803387 1.8659388 255
17.131632 -19.972019 1.1051594 255
17.090597 -19.718033 2.0374951 255
17.012922 -19.574234 2.0556259 92
17.117165 -20.096481 1.4617419 255
17.075642 -19.92503 1.4837646 255
17.03651 -19.750977 1.5059443 255
17.15596 -20.015278 2.37849 7
17.108557 -19.88726 1.9188888 255
17.125626 -19.869579 1.3229624 255
17.19989 -20.082298 2.204195 255
17.164005 -19.905716 2.2295246 255
17.25592 -20.066532 1.6999764 255
17.178751 -19.856861 1.3849008 255
17.208185 -19.908886 2.2918327 255
17.216679 -19.923542 1.6045439 255
17.128948 -19.584316 1.6724794 255
17.11252 -19.456028 1.8004855 255
17.024405 -19.206429 1.2801342 255
17.126921 -19.535477 2.1423664 255
17.085279 -19.362213 2.1721983 255
17.045996 -19.186329 2.2022336 255
17.097826 -19.413422 1.7541728 255
17.049662 -19.244854 1.7805793 255
17.098742 -19.403103 1.1502159 255
17.102098 -19.359791 2.0691988 255
17.129915 -19.545975 1.2107314 255
16.91511 -19.204418 1.2608694 5
17.117579 -19.390671 2.139442 255
17.148197 -19.796341 1.2134796 255
17.20525 -19.984406 2.1071 255
17.14674 -19.723679 2.1363921 255
17.230577 -20.091831 1.7959636 255
17.160154 -19.840729 1.8268141 255
17.118149 -19.654442 1.5611773 255
17.103132 -19.448395 1.3915281 255
17.149227 -19.473694 0.94886565 12
17.131416 -19.474613 1.857537 255
17.11322 -19.451477 1.7933342 255
17.09268 -19.406025 1.6699001 255
17.139296 -19.584969 1.5889113 255
17.109455 -19.544479 1.8450372 255
17.205805 -19.942341 1.3512375 255
17.156199 -19.774006 1.3629129 255
17.227678 -20.006386 2.2533658 255
17.131855 -19.58931 1.5226946 255
17.091698 -19.454494 1.6541674 255
17.031048 -19.189529 1.6740463 255
17.113192 -19.413857 1.3287069 255
17.032576 -19.165588 1.3455821 255
17.135923 -19.474079 2.2236552 255
17.072546 -19.212162 2.2426605 255
17.120136 -19.432079 1.0784501 255
17.106552 -19.420456 1.9788584 255
17.039864 -19.161205 1.9978179 255
17.08481 -19.35923 1.1800038 255
17.120813 -19.420586 2.0818243 255
17.093054 -19.446117 1.3508672 255
16.952745 -19.250751 1.3787469 7
17.116987 -19.494949 1.4235744 255
17.144039 -19.59346 1.1514063 255
17.128998 -19.460602 2.0854034 255
17.145197 -19.520641 1.6326975 255
17.128313 -19.381851 1.8608693 255
17.266769 -19.874321 1.6668384 255
17.258844 -20.009453 1.2193227 255
17.168795 -19.776779 1.2494187 255
17.093004 -19.53149 1.2798533 255
17.105986 -19.464939 2.2035728 255
17.301044 -20.048023 1.6197871 255
17.119423 -19.582088 1.6726836 255
17.109875 -19.496674 1.8648566 255
17.127752 -19.573997 1.6323795 255
17.047586 -19.434067 1.6478214 31
17.405523 -20.133793 1.5510286 91
17.132479 -19.53672 1.6035885 255
17.258284 -19.876968 1.615447 255
17.085405 -19.406216 1.356756 141.5
17.134264 -19.452938 2.2724836 255
17.149633 -19.505779 1.9058254 255
17.149075 -19.518192 1.6196537 255
17.10516 -19.391529 1.6831775 255
17.274679 -19.88512 1.5328453 255
17.136442 -19.487839 1.5624225 255
17.13625 -19.432957 1.6065249 255
17.256895 -19.883762 1.5541679 255
17.331045 -20.073704 1.7019799 255
17.141787 -19.617123 1.7457507 255
17.077604 -19.465118 1.7606051 255
17.157215 -19.784019 1.1127644 255
17.081017 -19.538219 1.139533 255
17.212955 -19.970371 2.0057106 255
17.150169 -19.715328 2.0343151 255
17.146257 -19.601768 1.8614848 255
17.129238 -19.4678 1.2262189 255
17.101719 -19.353283 2.1709239 138
17.466982 -20.145966 1.7728344 2
17.289648 -19.885063 1.8081938 255
17.142126 -19.496792 1.8543726 255
17.121456 -19.471615 1.3393211 255
16.915047 -19.231956 1.3752804 2
17.096268 -19.421856 2.2709723 130.5
17.228357 -19.890217 1.3077648 255
17.131975 -19.559811 1.3398645 255
17.007505 -19.354378 1.3639047 8
17.128443 -19.476452 2.2712705 154
17.140379 -19.55727 1.83709 255
17.202532 -19.926121 1.0407454 255
17.099035 -19.605347 1.0719944 255
17.403418 -20.292034 1.9221646 12
17.291983 -20.081837 1.9458538 255
17.151262 -19.693192 1.9870573 255
17.109968 -19.524574 2.0041776 255
16.991278 -19.420021 2.0196757 10
17.44838 -20.021271 1.5445465 20
17.123207 -19.286648 1.6450838 255
17.415722 -20.093937 1.4087536 255
17.160301 -19.502781 1.458111 255
17.240026 -19.929398 1.7500192 255
17.059786 -19.481487 1.7977029 130.5
17.244091 -19.928596 1.3033862 255
17.013321 -19.416622 1.3212924 8
17.230927 -19.875046 2.1945767 255
17.108807 -19.390781 1.4635444 255
17.381481 -19.91148 2.3337102 255
17.221394 -19.442154 2.3558545 255
17.39311 -20.038452 1.152392 9
17.050661 -19.328777 1.1885878 27
17.42436 -20.07596 2.0418534 16
17.293886 -19.888496 2.0526776 255
17.136778 -19.424252 2.0776944 255
16.991171 -19.248333 2.0890336 9
17.307953 -20.118767 1.5758214 255
17.148449 -19.754704 1.5795007 255
17.104393 -19.591614 1.5814366 255
17.305237 -20.028868 2.4554248 167
17.198133 -19.881207 1.7657989 255
17.114973 -19.550117 1.7725891 255
17.116508 -19.315678 1.3698943 255
16.987305 -19.127544 1.3781855 5
17.14463 -19.331966 2.2423327 255
17.210888 -19.878759 1.5387199 255
17.148003 -19.632088 1.5340288 255
17.24324 -19.932245 2.3989627 255
17.146568 -19.517281 1.5399424 255
17.13863 -19.517864 1.6043839 255
17.350346 -19.92136 2.4601836 29
17.102846 -19.327801 1.3130578 255
17.142973 -19.361404 2.1560659 255
17.251684 -20.027721 1.1251405 255
17.016523 -19.447052 1.166942 3
17.2586 -19.990013 1.9640592 255
17.05686 -19.480373 2.0039401 8
17.145565 -19.989367 1.7806052 255
17.101582 -19.832466 1.7858142 255
17.138752 -19.40456 1.455386 255
17.112787 -19.406761 1.1981211 255
17.114977 -19.352802 2.0219321 255
17.150723 -19.514313 1.6126399 255
17.093853 -19.355078 1.4108105 255
17.102592 -19.280998 2.2227683 255
17.166502 -19.503897 1.6821048 255
17.070755 -19.22258 1.9104573 130.5
17.110312 -19.703665 1.6551077 255
17.143465 -19.865374 1.6415761 255
17.223135 -19.895245 2.4331295 5
17.236202 -19.916439 0.99436116 14
17.185768 -19.952599 1.7869847 255
17.04855 -19.60618 1.8160212 129
17.255899 -19.480692 0.91606462 22
17.180641 -19.323195 1.7114404 255
17.079733 -19.132006 1.7258095 17
17.248222 -20.203405 1.1845407 255
17.097738 -19.88415 1.2440634 255
17.255915 -20.197901 1.975709 255
17.080835 -19.718023 2.0634623 255
17.130062 -19.949554 2.0246725 255
17.440781 -20.083351 2.2553287 130
17.211575 -19.464193 1.1275792 11.5
17.120724 -19.340139 1.890614 171.33333
17.144903 -19.398125 0.95522571 255
17.400078 -19.869904 1.6665924 182
17.1819 -19.444166 1.7035882 255
17.124418 -19.22146 1.7206638 255
17.289505 -19.508467 2.4429805 2
17.47588 -19.976801 1.2276666 3
17.066208 -19.30121 1.2978866 129
17.20866 -19.991903 1.4776323 255
17.031609 -19.539078 1.542485 136
16.959095 -19.194731 1.3747627 6
17.287962 -20.27854 1.5572754 255
17.153097 -19.880384 1.6109463 175.33333
17.106251 -19.403334 1.3871295 255
17.19453 -19.500607 1.3444953 255
17.107708 -19.223984 1.373404 255
17.190887 -19.435642 2.0661235 255
17.140568 -19.211786 2.090548 255
17.467606 -20.105402 1.5998106 11
17.304096 -19.924459 1.61831 255
17.182594 -19.512644 2.1297846 255
17.14032 -19.410629 1.3507829 255
17.164604 -19.401474 2.0555835 255
17.069933 -19.192951 1.1593533 255
17.176197 -19.511108 1.8357449 255
17.099869 -19.221531 1.8543687 255
17.384039 -20.000816 1.169657 57
17.272072 -19.948294 1.8569415 255
17.163675 -19.509949 1.8687203 255
17.125036 -19.403883 1.4276562 255
17.126587 -19.302153 1.5540031 255
17.19051 -19.476404 2.2323303 255
17.114517 -19.189953 2.2535825 255
17.167126 -19.473778 1.2296669 255
17.107565 -19.261992 1.2454088 255
17.197346 -19.52183 1.911895 255
17.138481 -19.31065 1.9298761 255
17.166275 -19.464846 1.8098962 255
17.122742 -19.402874 1.5300151 255
17.153271 -19.412285 2.2051201 255
17.152315 -19.525522 1.1802348 255
17.143091 -19.420923 1.8479642 255
17.111149 -19.339767 1.3162241 255
17.070141 -19.19927 1.3186846 255
17.108299 -19.247908 1.9808621 255
17.153139 -19.422377 1.437845 255
17.238121 -19.925896 1.6571064 255
17.174362 -19.453697 1.4322498 255
17.213474 -19.499294 2.0862253 255
17.186829 -19.486624 1.2893821 255
17.110085 -19.211632 1.3225833 255
17.194195 -19.445494 1.9554778 255
17.112881 -19.177971 1.9916507 255
17.163143 -19.818861 1.7166414 255
17.115673 -19.695095 1.7288237 255
17.220577 -20.11454 1.6909251 255
17.348053 -20.234537 2.3273768 255
17.166653 -19.829876 2.3720388 255
17.111057 -19.623943 2.3934741 255
17.429672 -20.087387 1.5847794 32
17.159229 -19.506298 1.641832 255
17.396883 -20.029306 2.2323384 255
17.195374 -19.516834 1.7236691 255
17.429768 -19.928833 2.325882 27.5
17.171593 -19.469233 1.5260564 255
17.107615 -19.274448 1.5467449 255
17.152121 -19.342865 2.1832924 255
17.130409 -19.382755 1.4161351 255
17.142977 -19.337166 2.056349 255
17.185015 -19.392567 1.352948 255
17.205605 -19.501059 1.1036116 5
17.356552 -19.850151 1.7195822 255
17.130459 -19.32457 1.7292768 255
17.218349 -19.494469 2.3554988 255
17.12837 -19.289444 1.4960604 255
17.179138 -19.440105 2.1068392 255
17.131134 -19.223396 2.1184454 255
17.20554 -19.484896 1.472459 255
17.190556 -19.348215 2.0933056 255
17.21888 -19.496908 2.085989 255
17.168789 -19.419277 1.4579 255
17.143053 -19.280748 2.072772 255
17.211233 -19.464621 2.0662303 255
17.314638 -19.860434 1.3563499 255
17.207279 -19.457106 1.3595262 255
17.237686 -19.508415 1.9712939 255
17.23406 -19.363703 1.6200781 255
17.249815 -19.358543 2.2299948 255
17.135643 -19.469845 1.3644476 255
17.147894 -19.406586 1.9711599 255
17.121355 -19.77743 1.2590721 255
17.085321 -19.644365 1.2654731 255
17.174135 -19.976948 1.2496464 255
17.062948 -19.534542 1.8661892 255
17.136889 -19.796743 1.8502929 255
17.128437 -19.503115 1.1881795 255
17.156507 -19.504591 1.7823858 255
17.336082 -19.96866 1.7607398 255
17.21549 -19.474922 1.6646307 255
17.216202 -19.422771 2.2587249 255
17.239395 -19.469942 1.5106536 255
17.237234 -19.498375 1.5871446 255
17.234907 -19.450211 2.1655443 255
17.175938 -19.446032 2.0352821 255
17.350943 -19.489202 0.92550159 3
17.286119 -19.381704 1.4985487 255
17.067556 -20.065214 1.7931193 255
17.214405 -19.490356 1.5904703 255
17.262371 -19.501877 1.4924507 255
17.268559 -19.468199 2.0051479 255
17.26333 -19.865135 1.3738339 255
17.329868 -19.913307 1.8831275 166.5
17.219223 -19.431404 1.1718304 255
17.212423 -19.372686 1.6823757 136
17.216049 -19.409096 1.7919775 186.5
17.375309 -19.895594 1.772401 255
17.270203 -19.489422 1.3207237 255
17.241108 -19.414696 1.8227321 191.75
17.138163 -19.435627 1.6335658 255
17.104057 -19.454651 1.1616664 255
17.235813 -19.891493 1.1543369 255
17.112961 -19.437777 1.6450438 255
17.123466 -19.427404 2.1343484 255
17.234043 -19.509556 1.4442543 255
17.233408 -19.455389 1.9292654 255
17.283176 -19.500238 1.7139006 255
17.330338 -19.858854 1.1578927 255
17.272419 -19.977474 1.2465855 255
17.201572 -19.900599 1.4703736 255
17.098206 -19.619053 1.4771438 204.2
17.156372 -19.691393 1.9038334 255
17.206007 -19.890537 1.8957267 255
17.13406 -19.546583 1.1876054 255
17.136585 -19.815126 1.1151305 22.5
17.082905 -19.726093 1.5196182 255
16.924728 -19.458237 1.5326458 3
17.214754 -19.501345 1.239596 255
17.328569 -19.894695 1.2191249 255
17.467499 -19.57103 0.91847634 2.5
17.314661 -19.282639 1.3293903 255
17.432442 -19.664639 1.3033555 255
17.177492 -19.499622 1.2375035 255
17.169704 -19.466507 1.6238666 255
17.091209 -19.881193 1.1449814 255
17.047012 -19.690744 1.3446412 255
16.993885 -19.545303 1.1628547 255
17.104488 -19.886595 1.5211573 255
17.012333 -19.544594 1.5436459 255
17.102139 -19.443724 1.44539 255
17.224522 -20.081301 1.1847994 0
17.039736 -19.85309 1.2007072 255
17.23966 -19.492474 1.3374389 255
17.252876 -19.483795 1.681198 255
17.121714 -19.712997 1.2417808 255
17.041847 -19.458193 1.2558906 255
17.121094 -19.674534 1.5755119 255
17.05901 -19.445993 1.591156 255
17.110886 -19.60358 1.9171286 255
17.071651 -19.447678 1.9299266 255
17.245251 -19.897999 1.314676 255
17.175278 -19.829201 1.2378331 255
17.126102 -19.648689 1.255442 255
17.145384 -19.681345 1.7273413 255
17.118162 -19.527107 2.0654655 255
17.150496 -19.448442 1.3399384 255
17.188744 -19.50779 1.8063037 255
17.121574 -19.799953 1.0350713 3
17.073568 -19.818825 1.3431474 255
17.004822 -19.575462 1.367251 255
17.145485 -19.474251 1.2733355 255
17.170853 -19.509981 1.879895 255
17.348831 -19.504492 1.5118499 255
17.342762 -19.443291 1.6750643 255
17.184128 -19.479958 1.4835527 255
17.204424 -19.505579 1.9222231 255
17.112705 -19.846119 1.3825581 255
17.046593 -19.617676 1.4164355 255
17.141983 -19.517963 1.2076287 255
17.150621 -19.508961 1.4923447 255
17.159527 -19.483521 1.783711 255
17.167543 -19.494934 2.0689232 255
17.245012 -19.438578 1.1811932 255
17.19747 -19.480629 1.2733619 255
17.205669 -19.496799 1.5492439 255
17.216747 -19.925951 1.1907902 255
17.204464 -19.92857 1.4389178 255
17.137356 -19.668905 1.3582485 255
17.068676 -19.430286 1.5267048 255
17.218668 -19.931623 1.6884022 255
17.154747 -19.709042 1.7308584 255
17.096239 -19.458218 1.7782123 255
17.260336 -19.87009 1.1720368 255
17.130806 -19.428055 1.3745097 255
17.198517 -19.453621 1.2834026 255
17.336161 -19.905807 1.6896378 255
17.131413 -19.381796 1.5457183 127.5
17.221809 -19.473309 1.7720181 255
17.429722 -19.86298 1.2087594 255
17.288389 -19.379963 1.4194177 255
17.444481 -19.858864 1.7985288 255
17.290958 -19.361523 1.9099848 191.75
17.422398 -19.858904 1.9197301 255
17.212368 -19.339031 2.0448263 0
17.174009 -19.438169 1.3394991 255
17.296169 -19.889183 1.3777404 255
17.293764 -19.871187 1.7267499 255
17.175949 -19.407269 1.6994133 190
17.1178 -19.470539 1.2326268 255
17.131729 -19.502949 1.5754646 255
17.138674 -19.507305 1.9256982 255
17.351233 -19.859833 1.248831 255
17.223589 -19.402069 1.3270968 255
17.360481 -19.856785 1.5818132 255
17.248268 -19.405504 1.7828003 255
17.383924 -19.875168 1.9127829 171.66667
17.211487 -19.381668 2.0228171 87.333336
17.297091 -19.89065 1.1931891 162.89285
17.289772 -19.930645 1.3832009 180.89999
17.175648 -19.528009 1.2302294 204.60001
17.287073 -19.976362 1.4123127 50.083332
17.170067 -19.521839 1.4033599 255
17.280594 -19.948669 1.5859908 171.83333
17.18811 -19.504009 1.57978 255
17.181597 -19.400301 1.315099 225.93384
17.19396 -19.462568 1.4318627 255
17.290514 -19.867176 1.6101747 0
17.170408 -19.371885 1.5784235 255
17.159058 -19.344015 1.2531151 168.60001
17.177649 -19.460941 1.5749446 255
17.183475 -19.448105 1.8613065 255
17.26502 -19.884428 1.4797817 238.73502
17.30431 -20.078541 1.6093206 43.333332
17.302319 -20.030415 1.8498569 201.5
17.284933 -20.07135 1.9127979 1.25
17.172401 -19.284191 1.1479816 0
17.199966 -19.509338 1.2740092 243.98529
17.182997 -19.437389 1.6881803 255
17.267982 -19.895613 1.9875906 0
17.183708 -19.417479 1.9905798 255
17.169249 -19.419247 1.2273103 254.16667
17.273903 -19.870024 1.5637711 127.5
17.163424 -19.333416 1.5982996 164.01042
17.197447 -19.508905 2.0535975 255
17.162428 -19.456875 1.1820408 255
17.293989 -19.912663 1.2452813 255
17.169037 -19.398151 1.3629229 158.25
17.278271 -19.866722 1.5424116 229.08057
17.192005 -19.522011 1.933342 251.39999
17.196293 -19.521324 2.2109628 189.33333
17.299393 -19.928719 1.244349 255
17.288197 -19.878431 1.6050984 241.5728
17.314121 -19.998436 2.1113863 135.14999
17.17556 -19.465996 1.3249258 255
17.290833 -19.91082 1.5412496 170
17.189531 -19.367336 1.6683714 129.66667
17.205154 -19.475506 2.1623919 226.21539
17.166405 -19.503355 1.2649131 254.7
17.151844 -19.432775 1.6880213 224.02292
17.148706 -19.421608 2.0318971 255
17.148504 -19.366825 1.4354801 2
17.158604 -19.37801 1.6086119 14.125
17.167921 -19.371841 1.9543419 89.354172
17.17034 -19.385292 2.2569976 107.2
17.185421 -19.481441 1.6990471 255
17.331482 -19.891232 1.7908936 131
17.338795 -19.377964 1.5620193 255
17.33287 -19.381546 2.1889839 255
17.232101 -19.493395 1.5021524 255
17.303791 -20.231613 1.6848009 3
17.263935 -19.876484 2.3367312 4
17.312752 -20.106142 2.3299115 136.5
17.248802 -19.246458 1.622279 255
17.28957 -19.338913 2.2988825 255
17.276756 -19.884247 1.4564891 121.5
17.277477 -20.23085 1.4329062 115.5
17.293655 -20.180429 2.1260557 29.5
17.307331 -20.060646 1.4457245 4
17.208151 -19.342823 1.7280328 255
17.252867 -19.876705 2.1490116 255
17.140976 -19.654449 2.0603356 255
17.200359 -19.959053 2.0275254 255
17.106106 -19.324457 1.2194662 255
17.144371 -19.796907 1.8197317 255
17.112396 -19.435257 2.2026963 255
17.125801 -19.335377 1.3647852 37
17.135841 -19.181248 2.3302808 255
17.113396 -19.606791 1.9447452 255
17.180721 -19.923424 2.105643 255
17.104771 -19.373432 2.2159343 255
17.131573 -19.478273 2.1911433 255
17.141544 -19.972654 2.0496895 255
17.101498 -19.749889 2.0874352 255
17.161804 -19.753567 1.9609642 255
17.207893 -19.882771 1.2633774 28
17.181923 -19.445801 1.3545067 255
17.130058 -19.224016 1.3995764 255
17.130875 -19.378231 1.3205068 255
17.118286 -19.781551 1.0551182 255
17.18856 -20.059576 2.2500572 255
17.144341 -19.838266 2.2975349 255
17.136524 -19.556736 1.2209933 255
17.147205 -19.248011 2.3609948 255
17.15416 -19.846201 1.4783828 255
17.113651 -19.893557 1.4871008 255
17.164272 -20.117931 1.4507368 255
17.168221 -19.790026 2.4636652 255
17.159126 -19.504189 1.4640607 255
17.173061 -19.859308 1.2751467 255
17.114681 -19.635506 1.314513 255
17.163826 -19.915874 1.8740811 255
17.120377 -19.691828 1.9086514 255
17.149284 -19.657421 1.7498322 255
17.093567 -19.322933 1.8060286 255
17.130833 -19.453423 1.8669705 255
17.126465 -19.603783 1.4029295 255
17.11412 -19.828615 2.3248727 255
17.079433 -19.365234 1.6403408 255
17.136051 -19.58761 1.5959873 255
17.134022 -19.146729 1.6860867 6
17.20295 -20.151505 1.6083808 5
17.116737 -19.490961 1.7632113 255
17.21682 -19.915972 1.5923202 143
17.086243 -19.256182 1.7557814 255
17.1166 -19.351837 1.2334417 255
17.157803 -19.465899 1.1182342 255
17.137394 -19.148308 2.1980846 11
17.112633 -19.390175 1.5814698 255
17.115009 -19.334469 2.3350565 255
17.250065 -19.995605 1.3433311 8
17.164227 -19.413246 1.4696323 255
17.225769 -19.997461 1.3753874 255
17.129593 -19.535854 1.4867029 255
17.106445 -19.186008 1.5706127 7
17.158409 -19.399975 2.2009599 255
17.080017 -19.054312 2.2826118 138
17.138481 -19.451931 1.0729136 255
17.096565 -19.446968 2.4511578 4
17.24408 -20.060902 1.0004506 47
17.152077 -19.714546 1.0764918 255
17.226059 -19.990234 2.3806601 34
17.145981 -19.444103 1.0179932 2
17.128891 -19.372147 2.3986313 255
17.162117 -19.527506 1.7164395 255
17.058105 -19.065945 1.8238285 220
17.230789 -20.111675 1.2310135 130
17.132835 -19.531185 1.365835 255
17.086746 -19.299908 1.4197221 255
17.268143 -20.10047 2.1743793 15
17.234558 -19.869205 2.2352204 255
17.162811 -19.524807 2.3260849 255
17.099197 -19.370382 1.3041258 255
17.04203 -19.143082 1.3685765 255
17.136528 -19.348993 1.8187726 97
17.267384 -20.160856 1.7127559 99
17.229683 -20.127832 1.273649 11
17.097328 -19.206354 1.5352092 255
17.286179 -20.175808 1.6962702 255
17.242012 -19.944143 1.7514858 255
17.07737 -19.254276 1.916666 33
17.246159 -19.91415 0.93298 12
17.123241 -19.458218 1.0528563 255
17.282909 -20.007099 2.2898836 23
17.154041 -19.684231 1.2503071 70
17.072033 -19.341145 1.34089 255
17.271305 -20.091452 1.7352521 255
17.12225 -19.403698 1.9129083 255
17.143475 -19.163116 1.9732144 4
17.136452 -19.456778 1.8201903 4
17.281418 -20.209488 1.3549985 131
17.108994 -19.402527 1.5503744 255
17.077202 -19.169151 1.6064011 12
17.196068 -19.94067 1.4038103 129
17.136642 -19.593987 1.4947977 255
17.045815 -19.252844 1.5854361 255
17.050198 -19.167149 1.1356744 255
17.265667 -19.939831 2.3151324 6
17.160122 -19.481537 2.4336653 4
17.265953 -20.049513 1.5764711 255
17.135178 -19.470825 1.6973939 255
17.104378 -19.235556 1.7460306 7
17.290092 -20.240618 1.5232 6
17.256615 -20.006422 1.5745633 255
17.086205 -19.196339 1.7538531 134.5
17.146313 -19.457561 1.9271548 255
17.133224 -19.48259 1.7396865 255
17.280415 -20.094393 1.4318895 255
17.138737 -19.512949 1.5164773 255
17.091717 -19.278542 1.5503767 20
17.084984 -19.313057 1.6041212 255
17.310204 -20.26656 1.8542821 175
17.26403 -20.036524 1.9098085 255
17.074974 -19.237181 2.1039398 79.5
17.260601 -20.017744 1.2760745 255
17.137646 -19.564539 1.3882216 255
17.050488 -19.223783 1.4723613 4
17.305656 -20.225311 1.9326177 22
17.103668 -19.302235 2.1219931 167
17.103394 -19.278633 1.8292003 255
17.074524 -19.042027 1.870126 3
17.201126 -20.032648 1.8384097 27
17.169167 -19.795187 1.8691449 255
17.113037 -19.562996 1.8995135 255
16.98687 -19.101891 1.9600463 255
17.143482 -19.598934 0.93724787 255
17.343517 -20.341845 1.307165 255
17.264355 -20.114176 1.3345757 255
17.204006 -19.882429 1.3620688 255
17.108395 -19.41326 1.4172183 6
17.106407 -19.516891 2.4363189 146
17.084759 -19.518009 1.1094849 11
17.028172 -19.29019 1.166029 141
17.319351 -19.981899 2.1427124 106
17.074387 -19.28166 1.6683917 255
17.291618 -20.02767 1.9608333 255
17.104748 -19.579727 1.556201 255
17.008129 -19.233891 1.617018 255
17.363388 -20.202513 0.99822617 255
17.298897 -19.934954 2.4018359 4
17.184528 -19.934675 1.521632 255
17.1096 -19.706341 1.5595372 255
17.018803 -19.357533 1.6166463 255
17.260643 -19.995213 1.3596545 255
17.068092 -19.306587 1.5080426 255
17.136841 -19.53479 1.458619 255
17.015736 -19.202343 1.6927934 162
17.225376 -19.964935 1.9055543 255
17.125027 -19.621481 1.9807094 255
17.038425 -19.273552 2.0561473 255
17.358498 -20.268597 2.0922375 3
17.249802 -19.930977 2.1780934 255
17.065804 -19.245054 2.3508363 130.5
17.299423 -20.005783 1.9318943 255
17.12294 -19.30876 2.0747466 134
17.330006 -20.067219 2.0735338 255
17.24688 -19.968616 1.6613932 255
17.113708 -19.509737 1.7634859 255
17.013855 -19.165409 1.8401973 33
17.085258 -19.634037 2.1254787 255
17.268314 -20.047453 1.4345781 124
17.154835 -19.707523 1.5073215 255
17.05875 -19.361313 1.5803472 255
17.39003 -20.291212 1.6419872 71
17.016655 -19.153496 1.8717755 3
17.117615 -19.371618 1.8260053 162
17.334728 -20.208134 2.0492396 10
17.132214 -19.519976 2.1982679 255
17.030216 -19.175867 2.2730269 131.5
17.138878 -19.772158 1.4470583 170
17.024849 -19.431269 1.5143219 255
17.282856 -20.024483 2.0079665 255
17.082752 -19.332335 2.1283116 255
17.000866 -19.107183 2.1683669 21
17.301575 -20.117939 2.1262884 255
17.009636 -19.201378 2.2653275 14
17.276093 -20.05368 1.2807927 132.5
17.157669 -19.713203 1.3328214 255
17.029434 -19.247547 1.4026513 255
17.069389 -19.482832 1.2325234 255
16.959534 -19.141123 1.2932167 255
17.341019 -20.179739 1.82851 19
17.006073 -19.038778 2.0466726 6
17.133682 -19.492777 1.3950031 255
17.029869 -19.153109 1.465452 7
17.297794 -19.984694 1.4173698 157.5
17.111225 -19.423414 1.5328779 255
17.004734 -19.084154 1.6025915 130
17.313606 -19.953669 1.42734 130.5
17.106483 -19.395853 1.5121894 255
17.345112 -20.116428 1.1168938 17
17.099964 -19.318914 1.2173166 255
17.307384 -20.053324 0.92448997 255
17.09 -19.372843 1.0019884 13
17.391773 -20.175911 2.2677898 5
17.302921 -19.95639 2.2934504 30
17.110493 -19.40625 1.0562431 255
17.311672 -20.052725 2.3082724 88
17.312172 -20.113449 1.5175836 135
17.057213 -19.31324 1.6398656 255
16.975716 -19.092058 1.6744316 7
17.401051 -20.23822 1.4988663 5
17.318127 -20.018339 1.5350096 255
17.06094 -19.23423 1.6626589 133.5
17.268185 -19.983566 1.1623139 255
17.117184 -19.536552 1.2232394 255
16.955975 -19.093529 1.2845359 7
17.337334 -20.233664 1.786242 130.5
17.204712 -19.908936 1.8364663 255
17.120033 -19.563648 1.8876166 255
16.986115 -19.239204 1.9383359 8
17.126991 -19.44141 0.96740031 255
17.325882 -19.978868 2.2145364 48
17.126373 -19.305021 2.3354518 8
17.439587 -20.273994 1.2555256 4
17.107723 -19.412399 1.4410715 255
17.017582 -19.200102 1.4876852 13
17.23288 -19.90016 1.2707717 255
17.062851 -19.341833 1.3640554 133.5
17.244579 -19.934746 1.1212502 255
17.112797 -19.485506 1.1864023 55
17.314552 -20.008917 0.97321314 185
17.075584 -19.357441 1.0968056 255
17.344532 -20.173277 1.4359322 255
17.247746 -19.965878 1.4784679 255
17.145023 -19.635689 1.5429268 255
17.029949 -19.31082 1.6075411 31
17.319176 -19.99572 1.3332245 255
17.045547 -19.240862 1.477298 133
17.411304 -20.285564 2.0654192 109
17.280994 -19.970184 2.1214838 255
17.068684 -19.316748 2.235568 130.5
17.401798 -20.317907 1.1793447 31
17.280827 -19.998928 1.2352843 255
17.102627 -19.455967 1.3293872 255
17.017056 -19.24522 1.367229 10
17.4016 -20.220356 1.1811681 63
17.325085 -20.006769 1.2224231 255
17.004963 -19.15802 1.3889537 8
17.433079 -20.169849 1.5536947 255
17.096828 -19.223408 1.827755 129.5
17.29427 -19.9468 1.8589611 255
17.152599 -19.519451 1.9531841 255
17.073513 -19.309509 2.0004463 40
17.388901 -20.315147 1.7243524 34
17.319687 -20.101746 1.7627912 255
17.228081 -19.898767 1.8011518 255
17.014366 -19.260311 1.9181695 15
17.316612 -20.098759 2.0759616 255
17.131577 -19.558338 2.1931224 255
17.073563 -19.3396 2.2396054 44
17.435368 -20.208071 1.6386285 217
17.346561 -20.005272 1.6899514 255
17.086147 -19.256725 1.8745522 131
17.443577 -20.297424 1.2597098 13
17.323528 -19.98542 1.3271623 255
17.150219 -19.451664 1.4405742 255
17.072491 -19.242035 1.4862113 17
17.350258 -20.157368 1.4076176 255
17.06871 -19.300282 1.5592766 169
17.269196 -20.011948 1.3890175 255
17.140961 -19.704044 1.4540848 255
17.050758 -19.37693 1.5198063 255
16.93969 -19.184296 1.5634092 5
17.071049 -19.386715 1.1985431 255
16.967487 -19.192307 1.2487884 7
17.360195 -20.056782 2.3701301 78
17.435604 -20.215054 1.5749741 130.5
17.096157 -19.275902 1.7930508 53
17.432156 -20.310024 1.5946859 5
17.284504 -19.893711 1.6955827 255
17.03194 -19.160629 1.8740419 30.5
17.422184 -20.237022 1.6061089 74
17.283421 -19.93832 1.6770203 255
17.110554 -19.410023 1.796797 173.33333
17.358639 -20.24012 1.4856656 31
17.284985 -20.034691 1.5402272 255
17.117924 -19.633648 1.6497214 255
17.013012 -19.321953 1.7326071 136.5
17.466389 -20.259991 1.5562195 20
17.367748 -20.068806 1.6144346 255
17.279171 -19.872456 1.6729177 255
17.073353 -19.251438 1.8502544 29
17.420437 -20.199158 1.8515747 135.5
17.284084 -19.9034 1.926276 255
17.148327 -19.484554 2.0272787 255
17.070583 -19.280071 2.0779216 27
17.293629 -19.974907 1.3768948 255
17.105442 -19.455215 1.4927758 255
16.961781 -19.159565 1.5625085 5
17.253868 -19.945824 1.7935441 255
17.03548 -19.312511 1.9161265 130
17.252201 -20.037281 1.8422542 255
17.122581 -19.736832 1.9171338 255
16.978081 -19.320614 2.017942 130.5
17.431984 -20.268246 1.2000084 8
17.361942 -20.060844 1.2538567 255
17.05035 -19.24641 1.4708586 28
17.076416 -19.17849 1.3830198 24
17.333271 -19.955872 2.1056123 255
17.123344 -19.322289 2.2058978 255
16.991512 -19.145317 2.2384887 10
17.383976 -20.258957 1.9003768 89
17.2537 -19.959656 1.955133 255
17.14661 -19.647221 2.0106463 255
17.089443 -19.430706 2.048161 255
16.975761 -19.245628 2.0848613 9
17.391556 -20.14217 1.2475281 255
17.00679 -19.229557 1.4186506 129.5
17.180511 -19.398617 1.3274006 255
17.056664 -19.09016 1.3815912 131
17.429153 -20.064537 1.6382066 255
17.058025 -19.162621 1.823825 131
17.323727 -20.227802 1.9632187 255
17.151691 -19.826412 2.0139809 255
17.045158 -19.512028 2.0529165 134
17.355221 -20.012741 1.7014648 255
17.155018 -19.500946 1.7711765 255
17.100662 -19.28083 1.7997075 255
17.418003 -20.042896 0.95702207 131
17.171204 -19.434189 1.0232452 255
17.232929 -19.421734 2.284512 9
17.304996 -19.962208 1.936218 255
17.11628 -19.445751 1.970331 175.66667
17.423199 -20.14259 1.7076826 132
17.055191 -19.230145 1.7711134 31
17.363331 -20.103794 1.7540549 223.5
17.38422 -20.078751 1.6095006 255
17.29631 -19.880672 1.6306741 255
17.07341 -19.261135 1.6957891 164
17.436958 -20.185032 1.9734217 46
17.338882 -19.992737 1.9925162 255
17.052696 -19.285122 2.061729 132
17.394871 -20.104427 1.1351428 255
17.296379 -19.911739 1.1580472 255
17.109303 -19.394474 1.216311 255
17.38829 -20.011135 2.4029613 8
17.464783 -20.238777 1.9157494 13
17.090164 -19.335476 2.0230303 138.5
17.415482 -20.12833 1.8887576 135.5
17.077671 -19.327942 1.9830111 136
17.386452 -20.127659 1.9706379 255
17.122719 -19.413055 2.0560393 255
17.340889 -20.082314 1.1403472 255
17.236431 -19.895542 1.1643016 255
17.13884 -19.580322 1.2008178 255
17.40736 -20.197186 1.2738266 38
17.269588 -19.905426 1.3050079 255
17.12051 -19.495403 1.3474293 255
17.344872 -20.114777 1.0649836 255
17.260963 -19.915401 1.0838892 255
17.108429 -19.507027 1.1223128 255
17.267345 -19.903233 0.91663325 198.5
17.347279 -20.104984 1.0272787 255
17.107925 -19.500854 1.103771 255
17.291859 -19.923515 1.3633037 255
17.098312 -19.415977 1.4266791 167
17.431026 -20.188721 1.210901 38
17.28653 -19.901817 1.2509134 255
17.141136 -19.490856 1.3051527 255
17.405163 -20.103275 1.7592988 255
17.109901 -19.282902 1.8635221 255
17.440907 -20.245331 1.6961511 20
17.037457 -19.233219 1.8146166 16
17.448174 -20.193913 1.8308899 29
17.363792 -19.993946 1.8528988 255
17.163628 -19.486691 1.9089377 255
17.45195 -20.253918 2.0406666 14
17.00359 -19.267746 2.1488848 22
17.432514 -20.305138 1.4629204 10
17.287422 -20.012291 1.4858086 255
17.021469 -19.284603 1.5411446 12
17.356075 -20.162083 1.6392721 255
17.142715 -19.656704 1.674456 255
17.037586 -19.339302 1.6962513 68
17.368004 -20.08374 1.3966336 255
17.271896 -19.887756 1.4040513 255
17.076893 -19.370235 1.4235644 150
17.394852 -19.932854 2.1256599 193.5
17.174549 -19.430119 2.1402826 255
17.107193 -19.216221 2.1468 11
17.479473 -20.155838 1.7575213 5
17.170666 -19.449905 1.7781817 255
17.401253 -20.04678 1.8841527 136
17.433067 -20.137959 1.7878102 45
17.14785 -19.4212 1.7858685 255
17.443512 -20.210579 1.9823798 19
17.137276 -19.38393 2.0031404 255
17.449696 -19.982243 1.1384534 29
17.485916 -20.168953 1.9904206 22
17.336605 -19.8829 2.015836 255
17.171902 -19.355476 2.0605776 255
17.088287 -19.154575 2.0784848 7
17.338379 -20.106178 1.0525692 255
17.058849 -19.390106 1.1039932 135
17.473686 -20.123528 2.3053443 6
17.140354 -20.174961 2.0374646 255
17.175278 -20.141861 1.9291147 255
17.060104 -19.829468 1.9515508 255
17.005024 -19.612507 1.9668049 255
17.100857 -19.444489 0.9691565 255
17.207485 -19.503849 0.91692889 255
17.136612 -19.294502 0.93180811 255
17.409714 -19.856808 2.1236386 163.5
17.083286 -19.17485 2.1766858 3
17.3974 -20.223007 1.066038 240
17.301392 -20.030201 1.0778693 255
16.992897 -19.337711 1.1204318 129.5
17.366894 -20.070004 2.3024368 21
17.356941 -20.23526 1.5558089 130
17.20472 -19.953205 1.5717753 255
17.015003 -19.443676 1.5997857 139
17.404892 -20.145596 1.2864203 255
17.113441 -19.44849 1.3245234 255
17.114647 -19.226822 1.9530911 255
17.444172 -20.150799 1.8419906 70
17.156231 -19.871101 2.0315764 255
17.158459 -19.451778 1.7609761 255
17.153885 -19.354847 1.6153142 255
17.413509 -20.041775 1.3199936 22
17.165962 -19.456318 1.3546845 255
17.135162 -19.959377 1.9547098 255
17.125267 -19.381184 1.9068855 255
17.208389 -19.398609 1.9176908 255
17.160095 -19.489082 1.5635285 255
17.365501 -20.20187 1.4841994 134
17.159988 -19.733997 1.5153884 255
17.045776 -19.44669 1.5346516 135
17.433891 -20.20388 1.3621001 129
17.112919 -19.451912 1.4031091 238
17.407009 -20.09235 1.5415053 255
17.101658 -19.334198 1.5949121 255
17.337616 -19.923771 1.2961287 255
17.222691 -20.071819 1.0851791 255
17.106319 -19.78965 1.1033838 255
17.335045 -20.185711 2.2125175 172
17.195889 -19.919411 2.2310722 255
17.11578 -19.614136 2.2512481 103
17.383514 -20.101559 1.5703247 255
17.29887 -19.9202 1.5832555 255
16.944324 -19.203461 1.6361406 3
17.106888 -19.310074 0.97968155 136.5
17.479641 -20.039845 2.0295939 31
17.399273 -19.859589 2.0525098 255
17.273335 -19.475216 2.0995584 226
17.34985 -19.958195 1.2476736 255
17.080231 -19.319244 1.308704 133
17.264774 -20.156036 1.0807838 255
17.108082 -19.793201 1.1086473 255
17.015175 -19.50391 1.1299496 255
17.308041 -20.106766 2.2113295 22
17.244221 -19.916508 2.2261543 25
17.149803 -19.746315 2.240449 13
17.497871 -20.183533 1.6781114 5
17.352959 -19.93338 1.701959 255
16.954273 -19.157131 1.7759041 6
17.444969 -20.118332 1.9357208 116
17.306885 -19.866543 1.9694141 255
17.179859 -19.491417 2.0159678 255
17.050442 -19.232723 2.0506339 8
17.339142 -19.987389 0.91622663 148
17.107258 -19.453808 0.97194695 255
17.460449 -20.26162 1.9935725 5
17.381538 -20.086437 2.0123141 255
17.099571 -19.360218 2.0896657 255
17.270664 -20.060699 0.99793148 255
17.137306 -19.690308 1.0393238 255
17.351818 -20.033283 2.0946712 8
17.256744 -19.398941 1.8510981 255
17.04121 -19.092377 1.8954248 4
17.250141 -19.277584 1.5091106 255
17.463856 -20.029873 1.4876146 255
17.198647 -19.416744 1.5267401 255
17.089947 -19.650517 1.0795106 255
17.176956 -19.44088 0.98976463 255
17.202023 -19.368176 2.0564914 31
17.245546 -19.982841 1.2047287 255
17.19722 -19.974876 0.97951603 255
17.081009 -19.597973 1.0084844 255
17.130657 -19.661949 2.050257 255
17.172346 -19.481815 1.7553309 255
17.241772 -19.939034 1.2881167 255
17.222462 -19.434364 1.120682 255
17.233891 -19.30616 2.137953 8
17.205961 -19.894791 1.7460952 255
17.133112 -19.614704 1.7440639 255
17.150763 -19.338551 1.0958731 255
17.302298 -19.506485 2.1001227 142
17.160309 -19.797417 1.8473371 255
17.062592 -19.541195 1.8506588 132.5
17.166952 -19.381924 1.8024726 255
17.070341 -19.236164 1.7945018 10
17.307383 -19.887363 1.5911211 255
17.143385 -19.36327 1.5798773 255
17.06143 -19.859097 1.0042049 255
17.138529 -20.116169 1.9887429 255
17.074949 -19.837841 1.9883968 255
17.229273 -20.091251 1.9306185 255
17.100664 -19.650982 1.91206 255
17.246281 -19.904068 1.4924756 255
17.190985 -19.90958 1.4930207 255
17.123289 -19.63905 1.490986 255
17.21125 -19.357166 1.8119736 255
17.158535 -19.294052 0.95112771 255
17.23592 -19.503326 1.8902223 255
17.168472 -19.235588 1.8815691 255
17.203285 -19.881828 1.5303528 255
17.133961 -19.617165 1.5345652 255
17.195406 -19.493469 1.8334588 255
17.162605 -19.343117 0.93461072 255
17.164455 -19.24614 1.8502167 255
17.170069 -19.944893 1.2065099 255
17.104525 -19.68433 1.1978487 255
17.180651 -19.892731 2.1129098 255
17.196148 -20.038921 1.8254377 255
17.13649 -19.778675 1.8073946 255
17.219379 -19.376148 1.5632644 255
17.175365 -19.397404 1.1940124 255
17.1756 -19.914234 1.0930047 255
17.110342 -19.665096 1.1018238 255
17.327253 -20.044041 1.9652505 139
17.160843 -19.52179 1.1816823 255
17.189341 -19.424675 1.6657674 255
17.172655 -19.472359 1.3304087 255
17.19401 -19.393448 1.6119009 255
17.190424 -19.51194 1.3995886 255
17.199598 -19.454521 1.8760605 255
17.146017 -19.311241 1.3694032 255
17.190426 -19.42448 1.4551914 255
17.177826 -19.891415 1.4300079 255
17.214561 -19.95256 2.213058 255
17.155489 -19.720341 2.1986384 255
17.152187 -19.347019 1.1676692 255
17.147261 -19.259293 1.9356388 255
17.297523 -19.860079 1.3811407 255
17.190216 -19.409664 1.3583214 255
17.212982 -19.443932 1.9364481 255
17.210842 -19.516235 0.95469224 255
17.189892 -19.37001 1.7060832 255
17.319965 -20.083321 1.4740939 255
17.218555 -19.381975 1.0374297 255
17.240761 -19.419456 1.7669572 255
17.167362 -19.509611 1.2758001 255
17.327042 -19.885962 2.0027523 255
17.192574 -19.463629 2.0025649 255
17.125328 -19.492109 1.160117 255
17.268419 -19.93922 1.8583964 255
17.229273 -19.88101 2.0068128 255
17.16008 -19.437576 1.8667696 255
17.211369 -19.356506 1.5348047 255
17.184654 -19.377174 1.3789883 255
17.139027 -19.4701 1.8532777 255
17.216942 -19.466845 1.4978676 255
17.247807 -19.504644 2.1684439 255
17.222338 -19.978426 1.497924 255
17.282196 -19.911737 1.5953413 255
17.209671 -19.42016 1.5131376 255
17.196877 -19.472094 1.1746521 255
17.188881 -19.347059 1.8149588 255
17.25374 -19.908699 1.6222955 255
17.195381 -19.3965 1.3082213 255
17.212456 -19.390446 1.9379919 255
17.216879 -19.508818 1.3524225 255
17.228991 -19.482445 1.9722083 255
17.178354 -19.502821 1.4088941 255
17.180372 -19.470602 2.0220432 255
17.253277 -19.48465 1.3859403 255
17.244688 -19.417419 1.9957488 255
17.149954 -19.372623 1.429775 255
17.207426 -19.383682 1.7078671 255
17.264647 -19.337837 1.5384722 255
17.302668 -19.443684 2.1216373 255
17.267548 -19.306181 2.1231151 255
17.303318 -19.86116 1.4573131 255
17.203737 -19.411119 2.0247874 255
17.272306 -19.392227 1.1862437 255
17.290419 -19.397305 1.7454236 255
17.367441 -19.497116 2.2963471 2
17.227673 -19.898945 1.1921084 255
17.154818 -19.515406 1.7376916 255
17.242842 -19.924276 1.7404335 255
17.228092 -19.376793 1.4425162 255
17.245203 -19.382812 1.9799516 255
17.137787 -19.434017 1.0604745 255
17.287806 -19.905024 1.5781327 255
17.198759 -19.517704 2.1163225 255
17.141752 -19.439547 1.3349042 255
17.28093 -19.918692 1.3221588 255
17.156349 -19.429808 1.856638 255
17.264627 -19.32888 1.1481316 255
17.282997 -19.333319 1.6632829 255
17.182583 -19.505936 1.2970936 255
17.185951 -19.479824 1.8059757 255
17.279293 -19.507517 1.981688 255
17.232645 -19.329582 1.9941629 255
17.089714 -19.444584 1.9452777 223
17.16782 -19.492817 1.9766002 255
17.308271 -19.473261 1.9235146 255
17.206604 -19.421421 1.93543 255
17.316185 -19.867523 1.9148893 255
17.268764 -19.483305 1.0297613 255
17.218744 -19.411451 1.8304514 255
17.17598 -19.46044 1.7119219 255
17.262482 -19.492018 1.0909094 255
17.316717 -19.897596 1.4032563 255
17.293554 -19.880011 1.8181441 255
17.219147 -19.957405 1.1977001 255
17.107075 -19.579201 1.2183731 255
17.132504 -19.637127 1.6251659 255
17.273474 -19.89813 1.7530531 255
17.146217 -19.507845 1.2291619 255
17.246468 -19.874622 1.2174762 255
17.156855 -19.492702 1.6183946 255
17.267698 -19.910532 1.9842799 255
17.15164 -19.4363 2.0116456 255
17.304947 -19.410938 1.0601559 255
17.309315 -19.386436 1.4425806 255
17.298153 -19.88682 1.2306463 255
17.319357 -19.924734 1.5965952 255
17.056936 -19.333294 1.9938413 0
17.268385 -19.944103 1.1316925 255
17.242321 -19.405476 1.2113204 255
17.21887 -19.454039 1.2528235 255
17.228056 -19.437603 1.7815716 255
17.137081 -19.597782 1.0684049 255
17.253979 -19.991751 1.0491856 255
17.248257 -19.956438 1.3915473 255
17.252375 -19.962811 1.7335541 255
17.239159 -19.939499 2.0786448 255
17.273201 -19.473354 1.109031 255
17.267063 -19.358601 1.7938583 255
17.196617 -19.51803 1.0508813 255
17.312582 -19.890366 1.0378972 255
17.307564 -19.899635 1.3630339 255
17.310093 -19.896915 1.6907119 255
17.309551 -19.899082 2.0188906 255
17.134678 -19.52272 1.5640007 255
17.140209 -19.517746 1.8875275 255
17.349941 -19.847095 1.2734257 255
17.350601 -19.843809 1.7443262 255
17.181995 -19.480724 1.3463989 255
17.199234 -19.440094 1.972569 255
17.09413 -19.616339 1.087275 255
17.192223 -19.926573 1.0789156 255
17.157183 -19.828312 1.081394 255
17.1001 -19.568361 1.546398 255
17.203089 -19.975502 1.5265771 255
17.161032 -19.811188 1.5345694 255
17.138433 -19.679508 1.9991386 255
17.202023 -19.94084 1.9813403 255
17.176334 -19.827438 1.9891543 255
17.246813 -19.492044 1.8323954 255
17.346882 -19.84753 1.9620192 255
17.188831 -19.400322 1.1661415 255
17.322769 -19.888943 1.1477938 255
17.193291 -19.385695 1.4596208 255
17.329691 -19.870617 1.4353896 255
17.330917 -19.858532 1.8656207 255
17.245846 -19.888357 1.1399434 255
17.260332 -19.931786 1.5569823 255
17.217812 -19.433523 1.08486 255
17.225801 -19.415882 1.3639326 255
17.407337 -19.888996 1.3393472 127.5
17.359266 -19.872915 1.7499841 255
17.240801 -19.383633 2.0700479 255
17.361732 -19.860531 2.1641233 255
17.188236 -19.372833 2.2084503 1
17.209261 -19.515705 1.2456876 255
17.216875 -19.499523 1.6544626 255
17.184702 -19.43401 2.0679035 170
17.334141 -19.914352 2.025034 255
17.26033 -19.976765 1.2826952 255
17.266251 -19.962509 1.8087689 255
17.090351 -19.442324 2.1077662 1
17.292641 -19.85573 2.2216735 128
17.180637 -19.498732 2.1079917 191.25
17.273897 -19.495651 1.125507 255
17.263857 -19.446028 1.3846729 255
17.227711 -19.367386 1.7775652 170.16667
17.475447 -19.917501 2.0879059 1.5
17.400341 -19.873922 2.0921664 255
17.286211 -19.896969 1.4130613 255
17.30172 -19.946163 1.8934761 255
17.314259 -19.907743 2.26791 101
17.270676 -19.893705 1.1184835 255
17.269279 -19.867519 1.3569766 255
17.299282 -19.920582 1.7081844 229.5
17.187265 -19.500263 2.1336982 170
17.286053 -19.490135 1.4663383 255
17.133152 -19.312532 1.3708116 0
17.290688 -19.486969 1.9454234 229.60001
17.318935 -19.918674 1.2819731 255
17.424368 -19.943777 1.843599 0
17.334038 -19.941532 1.7297094 214
17.180511 -19.419455 2.0444283 15.25
17.353062 -19.94735 2.0711231 170.66667
17.308331 -19.858707 2.0859532 255
17.34547 -19.858147 1.2653853 255
17.239035 -19.43214 2.0032816 170.33333
17.389008 -19.881807 1.9223942 153.8
17.443611 -19.71236 2.2946558 1
17.295137 -19.411102 1.0638599 255
17.311241 -19.424231 1.3889364 255
17.309179 -19.39912 1.612507 255
17.319216 -19.40019 2.0588083 165.5
17.480343 -19.617718 2.3478844 2
17.235188 -19.401911 1.358889 255
17.230801 -19.35606 1.7936357 212.66666
17.232416 -19.395306 2.2199214 131.125
17.271069 -19.440701 1.0280557 255
17.265591 -19.396431 1.3382905 255
17.263964 -19.371281 1.7535141 212.75
17.275944 -19.338547 2.0718541 195
17.204897 -19.364639 1.1997495 255
17.213951 -19.352394 1.6018535 255
17.351452 -19.849064 1.6290407 232.66666
17.209087 -19.355322 1.9044293 183.25
17.223814 -19.347065 2.2125711 12
17.235043 -19.470951 1.1346893 255
17.25227 -19.50716 1.4199846 255
17.258305 -19.500475 1.8086948 255
17.154793 -19.384031 1.9226166 0
17.276438 -19.501966 0.9443903 128.25
17.258286 -19.474308 1.3268007 255
17.201374 -19.259773 1.8538777 127.5
17.239407 -19.492689 1.7151088 215.33334
17.230288 -19.425392 2.0233188 191.25
17.190571 -19.469269 1.2082978 255
17.196989 -19.474918 1.3984917 255
17.331121 -19.934414 1.4255702 255
17.211525 -19.462555 1.8812093 219.25
17.369503 -19.941414 1.8887128 143.61111
17.210083 -19.416203 2.1850708 255
17.342855 -19.910118 2.1778805 191.5
17.222012 -19.427223 1.2209607 255
17.22139 -19.398373 1.6085074 223.125
17.229584 -19.392879 1.9016799 170
17.182543 -19.40678 1.274186 255
17.146336 -19.317217 1.1881976 255
17.197124 -19.393757 1.6584959 255
17.197763 -19.360126 2.0512526 255
17.133791 -19.312145 1.9584651 0
17.21273 -19.489883 1.125754 255
17.231125 -19.502831 1.7959726 223.125
17.246792 -19.511871 2.0884278 255
17.321857 -19.960758 1.1766888 255
17.331917 -19.962429 1.5490594 255
17.32806 -19.941378 1.9317862 255
17.308388 -19.853827 2.1406128 255
17.322216 -20.02042 1.3494856 255
17.433716 -20.051573 1.6368557 0
17.33334 -19.986717 1.638481 209.73334
17.302803 -19.891212 1.8428766 255
17.331366 -20.023907 1.1009727 255
17.342352 -19.995401 1.4813206 184.71111
17.194063 -19.501265 1.1836047 255
17.210752 -19.523739 1.5568206 255
17.19943 -19.468918 1.9447964 157.625
17.204649 -19.482155 2.2324436 140.33333
17.187355 -19.396114 1.3561574 255
17.200089 -19.432781 1.8155416 175.66667
17.221691 -19.432194 2.0987127 255
17.187529 -19.452946 1.3640451 255
17.200974 -19.444717 1.8186772 249.66667
17.14666 -19.327793 1.8375549 127.5
17.301395 -19.859201 1.1770676 255
17.31572 -19.887918 1.516589 255
17.35413 -19.956196 1.9368266 198.6111
17.216362 -19.496628 1.463868 255
17.235077 -19.497934 1.9879862 255
17.193226 -19.398497 1.9201792 178.5
17.224144 -19.501402 1.811139 255
17.341928 -19.906231 1.7321997 172.55554
17.239876 -19.516151 2.1602476 255
17.177197 -19.354782 1.4773145 255
17.171354 -19.363644 1.8183389 164.60001
17.330822 -19.8512 1.547667 130
17.227022 -19.448483 2.1433959 238.89999
17.197586 -19.502262 1.2333006 255
17.315094 -19.899759 1.0855535 103
17.204531 -19.512358 1.5620966 212.58334
17.402601 -19.915432 1.7190011 0
17.313055 -19.871166 1.8935323 230.53333
17.330065 -19.912432 2.2103157 255
17.31341 -19.879351 1.4417402 255
17.188141 -19.434319 1.9241261 150
17.343412 -19.918545 1.8183082 174.3889
17.231243 -19.48698 2.2387419 255
17.351448 -19.943098 2.124068 228
17.187759 -19.479191 1.5905291 204.26666
17.194418 -19.467518 1.9809383 194.375
17.19861 -19.432228 2.2266021 170.33333
17.220192 -19.517492 1.2638144 243.3889
17.314148 -19.854183 1.2093124 252.93333
17.340044 -19.880493 1.6364163 178.63335
17.183355 -19.420923 2.0359168 130.25
17.347132 -19.921795 1.8450783 140.75
17.305325 -19.935154 1.3286066 255
17.291313 -19.89476 1.1980604 255
17.173813 -19.478697 1.7632569 123.4
17.327784 -19.930538 1.6064059 212.5
17.342548 -19.986494 1.5958618 170
17.320337 -19.938375 2.025311 234.58333
17.336876 -19.857689 2.4107687 120.75
17.19125 -19.468159 1.2137792 255
17.177708 -19.440247 1.5654777 156.40001
17.188337 -19.423941 1.9966421 142.68333
17.326429 -19.886379 2.1661344 204.2
17.162952 -19.314709 1.1057696 191.75
17.190866 -19.341763 1.3663547 223.54167
17.202513 -19.351589 1.7689934 196.93982
17.240429 -19.430969 2.1632559 130.85185
17.182323 -19.502501 1.5181366 190.86665
17.17943 -19.461224 1.9070237 159.66667
17.301884 -19.879448 1.8751637 218.08333
17.176016 -19.447058 2.2377563 69.066666
17.309055 -19.882603 2.1895978 193.54167
17.195742 -19.413448 1.0765853 255
17.209816 -19.448627 1.307319 228.65001
17.231953 -19.484116 1.7216384 232.06439
17.237423 -19.474548 2.0981493 135.91347
17.212606 -19.475454 1.3914217 255
17.166811 -19.3153 1.7715456 118.36111
17.212957 -19.432383 1.68791 255
17.188301 -19.318384 2.1352649 162.91667
17.233587 -19.461296 2.0979655 255
17.223625 -19.356348 2.3768933 4.25
17.24515 -19.478813 2.3391268 217.66667
17.383043 -20.032181 1.1140833 1.5
17.357525 -20.021328 1.4824255 87.611107
17.294271 -19.876089 1.4540377 255
17.347206 -20.015596 1.8671029 113.70833
17.294546 -19.876234 1.8406217 255
17.297771 -19.868309 2.0734119 255
17.397648 -19.899046 1.3014503 0
17.139816 -19.289299 1.6871172 0
17.221628 -19.505836 1.4972721 227.72845
17.368044 -19.890572 1.5015351 2.666667
17.352825 -19.889973 1.8653454 85.541664
17.166935 -19.304743 2.1400576 0
17.192749 -19.3417 2.1360416 89.666664
17.206272 -19.484207 1.1420255 255
17.16679 -19.38011 1.1554172 183.66667
17.204868 -19.449017 1.3971264 255
17.156746 -19.330921 1.4145606 113.0625
17.3592 -19.900145 1.2816046 1
17.207712 -19.432745 1.7609313 241.36365
17.153687 -19.298899 1.7848077 4.4444442
17.1817 -19.511562 1.3323679 109.85834
17.331366 -19.996557 1.3456037 255
17.33906 -20.008333 1.6326169 255
17.197113 -19.471054 1.2360878 153.52737
17.142252 -19.334185 1.395587 0
17.202765 -19.475063 1.5167137 210.5625
17.19224 -19.408274 1.1703084 117.4
17.339191 -19.904402 1.1457613 64.875
17.181065 -19.411846 1.3460884 192.60001
17.328293 -19.909803 1.2724031 175.66667
17.216286 -19.498932 1.2038372 178.05209
17.430227 -19.965998 1.2230263 0
17.222387 -19.518005 1.4638705 238.95454
17.204592 -19.471363 1.0510297 4.6999998
17.200281 -19.432627 1.22109 156.9978
17.197144 -19.454268 1.472048 206.07143
17.269112 -19.357975 1.0229669 0
