# .PCD v0.7 - Point Cloud Data file format
VERSION 0.7
FIELDS x y z intensity
SIZE 4 4 4 4
TYPE F F F F
COUNT 1 1 1 1
WIDTH 1033
HEIGHT 1
VIEWPOINT 0 0 0 1 0 0 0
POINTS 1033
DATA ascii
-1.5749578 -8.5862131 -0.12244574 91
-1.6866028 -8.6071339 -0.12374505 17
-1.6448009 -8.5870228 -0.65039909 20
-1.5840656 -8.5781898 -0.0045765098 65
-1.6107382 -8.6276474 -0.55378753 74
-1.6053976 -8.6017323 -0.32309282 255
-1.6086922 -8.5946636 -0.01930932 85
-1.5973046 -8.60853 -0.30723262 139
-1.6321912 -8.6286221 -0.4903782 55
-1.6171899 -8.6209145 -0.33587104 255
-1.6020451 -8.6144514 -0.18147376 68
-1.6696529 -8.6796846 -0.83159935 19
-1.6149644 -8.6689987 -0.43939674 152
-1.6271455 -8.655652 -0.20951946 61
-1.6298107 -8.6161737 -0.45029578 11.5
-1.6375651 -8.6063204 -0.22062287 8
-1.6229414 -8.6050138 -0.066459984 0
-1.6596552 -8.648036 -0.70111156 5
-1.6208007 -8.6261024 -0.54198408 26
-1.6146309 -8.6130714 -0.3098284 148.5
-1.5848627 -8.5741987 -0.70029789 0
-1.6510676 -8.6078205 -0.46890774 4
-1.6501344 -8.591013 -0.23753849 9
-1.6706553 -8.6021519 -0.01122063 8
-1.646579 -8.5950098 -0.84108686 4
-1.6060708 -8.6266718 -0.61111152 14
-1.6130085 -8.603199 -0.30203128 48
-1.6196671 -8.5919018 -0.65505135 27
-1.6115339 -8.5724239 -0.18676507 49
-1.6485283 -8.6215029 -0.77890611 9
-1.6540461 -8.5761452 0.01562017 48
-1.6450789 -8.6213112 -0.7400825 45.5
-1.6726356 -8.6076517 -0.03090647 23
-1.63129 -8.6379757 -0.85598272 25
-1.5773177 -8.5818911 -0.075699672 24
-1.6601048 -8.5688829 -0.078285903 0
-1.6965466 -8.5932808 -0.57648546 14
-1.6391716 -8.612298 -0.37145942 10
-1.6488485 -8.5883369 0.048378199 27
-1.6449184 -8.681941 -0.32714438 0
-1.7481508 -8.6234512 -0.19192743 62
-1.6408787 -8.6714096 -0.87959063 37
-1.7119884 -8.6359444 -0.85956836 44
-1.6855621 -8.6020355 -0.58315772 40
-1.6438732 -8.5720348 -0.54756218 71
-1.6249466 -8.5848532 -0.47622991 91
-1.6263285 -8.5681992 -0.77375108 47
-1.6974554 -8.5825548 -1.0069052 27
-1.6166124 -8.6463461 -0.8521111 22
-1.6124859 -8.6389294 -0.35598174 84
-1.6903124 -8.6521721 -0.94648451 31
-1.6590586 -8.5799637 -0.40091631 82
-1.6771479 -8.5612431 -0.93675935 78
-1.6926045 -8.5897198 -0.6974144 44
-1.7013745 -8.5703659 -0.38943088 31
-1.6857295 -8.5863705 -0.40046012 64
-1.6570063 -8.6161375 -0.99808818 59
-1.6716251 -8.5910625 -0.41048163 57
-1.5965004 -8.6247425 -0.80804789 59
-1.6077776 -8.6033716 -0.66880453 59
-1.6322999 -8.6505375 -0.44956145 54.5
-1.6431851 -8.6732635 -0.87564534 53
-1.6371479 -8.6408587 -0.60881448 55
-1.647172 -8.6717663 -0.74047107 41
-1.640492 -8.6389914 -0.473894 56
-1.649169 -8.6388206 -0.33920515 45
-1.646821 -8.61022 -0.91734964 37
-1.6671262 -8.5957851 -0.65577495 53
-1.6697884 -8.5895157 -0.45852602 49
-1.6763039 -8.6564445 -0.93937343 46
-1.6759372 -8.6238909 -0.68516517 52
-1.6636095 -8.5908747 -0.56000876 49
-1.6814823 -8.6175032 -0.42822057 46
-1.6904092 -8.6166306 -0.29995817 28
-1.730442 -8.5835152 -0.80169272 53
-1.6157942 -8.6656752 -0.44168434 40
-1.5828547 -8.5923452 -0.26841244 49
-1.678319 -8.6459923 -0.96146452 38
-1.7017717 -8.5749598 -0.80048418 28
-1.6612287 -8.5833445 -0.60825861 40
-1.660696 -8.588541 -0.48629519 41
-1.6756277 -8.602417 -0.36473373 27
-1.5951505 -8.6225662 -0.85247618 67
-1.6327779 -8.586132 -0.94156861 70
-1.6437471 -8.5671501 -0.71743548 63
-1.6112773 -8.6218376 -0.54685664 49.666668
-1.6676242 -8.6344442 -0.96931803 31
-1.6934059 -8.5786228 -0.81420803 56
-1.6543663 -8.5955257 -0.57241076 40
-1.6556518 -8.581212 -0.40473905 40
-1.7103555 -8.556819 -0.96300888 16
-1.7299454 -8.5874004 -0.80124748 39
-1.6335847 -8.6785793 -0.59525937 20
-1.5933278 -8.6182384 -0.43034887 171
-1.6327374 -8.6399155 -0.3251853 21
-1.5894744 -8.6156931 -0.15659505 17.5
-1.6579394 -8.6590252 -0.87127233 40
-1.6822245 -8.6200237 -0.96129578 34
-1.6284292 -8.6233168 -0.70532948 35.5
-1.593936 -8.5752773 -0.53858829 99
-1.6245282 -8.5793791 -0.32792199 14
-1.6115892 -8.6030064 -0.21228737 3
-1.678417 -8.5398111 -0.9509697 69.5
-1.6437631 -8.5774994 -0.71554351 26.5
-1.6361678 -8.6251154 -0.46419939 0
-1.5951549 -8.5721827 -0.42998815 152
-1.6210303 -8.6160154 -0.83336782 0
-1.6644218 -8.5680065 -1.0910573 15
-1.6431894 -8.5948334 -0.94257206 31
-1.6639053 -8.6098423 -0.52600992 255
-1.6106689 -8.6097527 -1.0697939 74
-1.6238686 -8.5882797 -0.85997415 83
-1.5910103 -8.5835857 -0.63794893 48
-1.7269011 -8.6060133 -0.54034483 255
-1.7132204 -8.6348152 -0.90873027 13
-1.581109 -8.5983419 -0.72605872 39
-1.5921088 -8.5921612 -0.98044455 57
-1.5900075 -8.5953321 -0.75987911 58
-1.5873101 -8.575675 -0.5400086 149.5
-1.7010791 -8.5618172 -0.82416606 53
-1.6088597 -8.5852776 -0.64249617 80
-1.5975268 -8.6055298 -1.0464039 48
-1.666911 -8.5618677 -0.91762733 73
-1.5971959 -8.5855541 -0.74374175 70
-1.5973107 -8.5793247 -0.5934388 134
-1.6123295 -8.6263514 -1.0526676 61
-1.7062726 -8.5922585 -0.93188125 39
-1.6104627 -8.6016693 -0.74730927 53
-1.6088152 -8.5910807 -0.59622365 255
-1.6068597 -8.5737 -0.44546562 255
-1.6926522 -8.5982761 -0.91892493 31
-1.5876511 -8.6122541 -1.0155003 66
-1.6866026 -8.5848398 -0.8973251 32
-1.5919164 -8.5932293 -0.70831603 70
-1.719443 -8.570673 -0.8600294 37
-1.6017504 -8.5924406 -0.66347301 84
-1.5916648 -8.5862579 -0.60992336 164
-1.6908712 -8.6131353 -0.90926617 31
-1.5810602 -8.5770435 -0.63704205 164
-1.6333046 -8.6514273 -0.98059171 25.5
-1.642921 -8.6044188 -0.9898898 46.5
-1.5981739 -8.5879068 -0.74076068 81
-1.5978204 -8.5919886 -0.80023181 82
-1.7325025 -8.5976515 -1.067136 15
-1.5929635 -8.6054049 -0.70658439 75
-1.5704675 -8.5830307 -0.54425472 255
-1.5930212 -8.5996885 -0.85956043 81.5
-1.5993894 -8.5853777 -0.63050902 82
-1.616375 -8.5912094 -0.91857874 87
-1.5823985 -8.5868282 -0.59481502 255
-1.7087491 -8.6273613 -0.92866594 20
-1.5931623 -8.5908346 -0.72353387 72
-1.5931609 -8.6127863 -0.94173604 73
-1.6010709 -8.5903463 -0.71204203 79
-1.583908 -8.5948524 -0.6752947 63
-1.6643236 -8.5654907 -0.84545469 45
-1.5860586 -8.5856428 -0.66230226 68
-1.5843673 -8.6061935 -0.98968673 64
-1.5870407 -8.5941343 -0.76119852 72
-1.589426 -8.5730276 -0.38207674 74
-1.5790634 -8.5858078 -0.79700166 39
-1.5793147 -8.5876722 -0.64573926 39
-1.6530402 -8.6051836 -0.94776714 35
-1.6754394 -8.6186733 -0.91319668 30
-1.5798481 -8.591876 -0.72138405 84
-1.6402856 -8.5703812 -0.91336435 84
-1.6594663 -8.5590286 -0.9076522 62
-1.5864989 -8.6039276 -1.0365729 64
-1.5919468 -8.5811338 -0.72946841 85
-1.5966787 -8.6050053 -0.93628913 82
-1.5826123 -8.5923452 -0.80693829 85
-1.5833639 -8.5824471 -0.65381247 85
-1.5871568 -8.6026583 -0.94194758 83
-1.5880375 -8.5726995 -0.63539487 83
-1.5773025 -8.5941172 -0.77944577 72
-1.5788691 -8.5875931 -0.62672627 69
-1.5889969 -8.5979919 -0.76601601 85
-1.5730057 -8.5814486 -0.65655071 45
-1.5786948 -8.5829649 -0.66454405 55
-1.5851625 -8.6077566 -0.95335025 39
-1.5858114 -8.5921211 -0.79915684 44
-1.587624 -8.5774698 -0.64703608 43
-1.6186662 -8.581625 -0.95190561 91
-1.6745226 -8.5763674 -0.74092382 31
-1.584968 -8.5972013 -0.86352527 85
-1.6255131 -8.5901928 -0.92769384 91
-1.6574726 -8.5600243 -0.63820827 44
-1.6716502 -8.5692186 -0.41942543 40.5
-1.5954864 -8.5909081 -0.77160877 82
-1.6033902 -8.6021729 -0.92438477 83
-1.5885084 -8.5927458 -0.62023056 78
-1.6267195 -8.5842819 -0.40802419 80.5
-1.5835876 -8.59445 -0.65119433 68
-1.5759192 -8.5932846 -0.66669488 77
-1.6932634 -8.6162405 -0.69518155 22
-1.5819261 -8.5977888 -0.64009488 77
-1.5724585 -8.5868874 -0.74859095 82
-1.6508862 -8.5720282 -0.9233104 50
-1.7138221 -8.5628633 -1.0722048 12
-1.5858932 -8.5902519 -0.6532101 165
-1.6768696 -8.6428032 -1.0328265 46.5
-1.5767386 -8.5873785 -0.69538152 61
-1.6291041 -8.6019936 -0.65945685 74
-1.6104811 -8.6222849 -0.80407894 80
-1.599001 -8.5826025 -0.49963114 255
-1.646029 -8.5954208 -0.70280516 88
-1.5977775 -8.5976505 -0.5341531 255
-1.6212705 -8.5806723 -0.24064872 75
-1.6287636 -8.6282854 -0.97423482 52
-1.6474366 -8.5985746 -0.82777059 90
-1.6433742 -8.5961018 -0.67508566 84
-1.6152408 -8.580411 -0.51521468 255
-1.6304994 -8.5636806 -0.22126734 51
-1.6594956 -8.6242752 -1.0082059 57
-1.612388 -8.6227102 -0.76736188 54
-1.6060851 -8.6277084 -0.6150865 255
-1.5988666 -8.5938578 -0.46274883 255
-1.5937607 -8.6251669 -0.31223869 74
-1.6140671 -8.6357336 -0.99796462 31.5
-1.5963259 -8.5878639 -0.61488008 146
-1.5783783 -8.5808344 -0.96070468 15.5
-1.6577859 -8.6428041 -1.0455295 8
-1.6396558 -8.5808096 -0.93764532 70
-1.6068062 -8.5789566 -0.70144057 64.5
-1.6577113 -8.5860777 -0.48611221 255
-1.6710775 -8.5537682 -0.85956341 34
-1.7146717 -8.6429491 -1.0437334 11
-1.6818693 -8.625371 -0.8802976 12
-1.6666406 -8.6103544 -0.90574741 18
-1.7042499 -8.5916615 -1.063319 5
-1.6548717 -8.6083403 -0.89413106 15
-1.7172203 -8.5952168 -1.0428683 12
-1.7001355 -8.5291538 -0.85838151 34
-1.7037196 -8.6342096 -1.0458385 16
-1.6302027 -8.6114035 -0.97591817 35.333332
-1.6875633 -8.5522289 -0.82504606 14
-1.6406446 -8.6009493 -0.86611938 20
-1.6633468 -8.5779839 -0.51087159 255
-1.6501968 -8.5810232 -0.87384212 28
-1.6805432 -8.5767078 -1.0404751 15
-1.648367 -8.5869255 -0.88197345 28
-1.6831365 -8.5378971 -1.0310385 13
-1.6197625 -8.5872555 -1.0153985 27
-1.6604695 -8.5661163 -0.8765552 29
-1.6604438 -8.5978298 -0.88704079 19
-1.6846464 -8.572649 -0.21328363 0
-1.6253021 -8.5843029 -0.99786043 30
-1.653542 -8.5685663 -0.85561633 29
-1.7040585 -8.650548 -1.0171188 11
-1.6408659 -8.5885153 -0.84298861 24
-1.6909397 -8.5947094 -0.84894156 12
-1.6399171 -8.5975876 -0.99955773 12
-1.6485565 -8.5604 -0.8500101 17
-1.685611 -8.5629854 -0.41583219 255
-1.7026086 -8.6536674 -1.0331026 6
-1.6307575 -8.5604019 -0.85641015 25
-1.6346004 -8.5567589 -0.82063174 14
-1.6695619 -8.5661125 -0.86857802 55
-1.6568121 -8.5572195 -0.57082111 32
-1.5814577 -8.5769272 -0.85219425 14
-1.6412959 -8.6109076 -0.97096628 0
-1.646174 -8.6122026 -0.82155973 0
-1.676194 -8.5803099 -0.94803602 0
-1.6240056 -8.60361 -0.83905244 8
-1.686233 -8.5358362 -0.52435052 30
-1.6897032 -8.6406984 -0.86543572 2
-1.5914302 -8.5888224 -0.77496445 31
-1.7161765 -8.6000261 -0.89255327 8
-1.5914559 -8.5900393 -0.81833911 7
-1.6076059 -8.5865412 -0.81558001 15
-1.6747293 -8.5714817 -0.12752096 71
-1.6130986 -8.569088 -1.1040483 40
-1.6826205 -8.58811 -0.41672313 105
-1.6200523 -8.6443806 -0.71072721 55
-1.6595812 -8.5628185 -0.36032927 69
-1.6197109 -8.594902 -0.94507718 82
-1.6160517 -8.5699778 -0.22652104 54
-1.6375046 -8.5604973 -0.58017832 48
-1.6186414 -8.5648317 -0.5230518 33
-1.6330099 -8.5569658 -0.37448412 31
-1.6446252 -8.5687771 -0.67505097 18
-1.6020288 -8.6173744 -0.88995147 29
-1.6133199 -8.6178665 -0.67202389 25
-1.5857315 -8.5884581 -0.45154321 49
-1.6126094 -8.5836248 -0.30974057 24
-1.6183882 -8.5946274 -0.16350934 17
-1.5957532 -8.5776129 -0.79021853 29
-1.6236887 -8.5753145 -0.21907957 10
-1.6057634 -8.5683765 -0.98690039 69
-1.6212482 -8.5910854 -0.62850285 18.5
-1.6101527 -8.5766172 -0.85956836 11
-1.6129515 -8.5654488 -0.64725733 29.5
-1.5902666 -8.5740652 -0.8746863 2
-1.5859677 -8.5983992 -0.96705025 18
-1.6122037 -8.5694418 -0.91994411 31
-1.5873147 -8.5905781 -0.77054775 15
-1.5846553 -8.5738564 -0.92670739 54.5
-1.5770764 -8.5916605 -0.9728936 33
-1.5917615 -8.5751524 -0.87500978 0
-1.5784054 -8.5939302 -0.7790553 3
-1.6310906 -8.5688753 -0.86278617 0
-1.6337742 -8.6096106 -0.35128099 88.066673
-1.5954424 -8.6139736 -0.040203098 44.666668
-1.6015383 -8.6256208 -0.72557217 71
-1.6596116 -8.5816269 -0.34572986 81.650002
-1.5833071 -8.6043673 -0.24441484 69.44445
-1.6549379 -8.6559525 -0.86832583 20.1
-1.6134014 -8.5673437 -0.23967801 102.83334
-1.7532452 -8.6192694 -0.88704181 11.222222
-1.6577061 -8.58918 -0.7519592 40.444443
-1.6870803 -8.6106529 -0.69415367 51
-1.6174111 -8.6157379 -0.43139738 129.375
-1.6339374 -8.6149836 -0.12475947 46.599998
-1.6050035 -8.6446171 -0.74333596 69.444443
-1.6961565 -8.5973167 -0.44286793 84.050003
-1.6887952 -8.584775 -0.13320082 55
-1.6120183 -8.6274729 -0.62172687 59.111111
-1.6253932 -8.6028271 -0.23537329 65
-1.6153798 -8.6526251 -0.0025105299 0
-1.6132926 -8.6597338 -0.79971123 53
-1.6105392 -8.6248941 -0.48588046 90.777771
-1.6113238 -8.6058884 -0.099606983 58.974998
-1.6401408 -8.5990887 -0.35234398 65.75
-1.6394305 -8.5789185 -0.12126514 65
-1.6596348 -8.5880766 -0.82604235 37.733334
-1.6739231 -8.5864878 -0.43892032 96.116669
-1.6089846 -8.6504345 -0.77555329 49.708336
-1.6121475 -8.6276197 -0.38495868 107.28889
-1.6083244 -8.6234035 -0.075765952 48.166668
-1.6818051 -8.6323414 -0.43520975 85.650002
-1.669912 -8.6162834 -0.047868039 48.474998
-1.6564244 -8.6058893 -0.76939279 36.444443
-1.6152896 -8.6227398 -0.06236859 8
-1.6100093 -8.5852098 -0.0089801503 8
-1.5978047 -8.6232262 -0.38410488 101.66666
-1.6851388 -8.5518827 -0.08101134 34.666668
-1.6273378 -8.6336927 -0.70262682 41.400002
-1.6596811 -8.5847359 -0.31560847 106.32223
-1.5852376 -8.5860586 -0.0046649398 51.5
-1.5985861 -8.6047354 -0.13733239 71
-1.6851439 -8.6162691 -0.5932045 60.755554
-1.7073258 -8.5899487 -0.20991284 96.458336
-1.6104918 -8.6288471 0.027343599 18
-1.6600879 -8.6641665 -0.14198151 66.625
-1.651158 -8.6373415 -0.3553701 64.833336
-1.6758206 -8.6502342 -0.049265262 11
-1.6014943 -8.60009 -0.04223245 60.75
-1.5863954 -8.6074457 -0.40190294 131.27777
-1.642199 -8.5533066 -0.5287044 34.166668
-1.6328776 -8.6569805 -0.88831455 11
-1.6480927 -8.551754 -0.72573531 33.742424
-1.6292765 -8.5984802 -0.81689894 28.58889
-1.7261729 -8.6103468 -0.44828188 85.308334
-1.6937622 -8.6041079 -0.63674647 57.644444
-1.6913238 -8.5881472 -0.25467938 110.75
-1.6765429 -8.589632 -0.02575274 60.25
-1.5803834 -8.5900545 -0.76711297 31.727272
-1.634611 -8.6186619 -0.31651798 88.916664
-1.5916494 -8.6072283 -0.0087441904 36.75
-1.6656727 -8.5739527 -0.52691746 62.619049
-1.6328114 -8.573575 -0.1441385 54.483334
-1.6221793 -8.6166058 -0.76329219 21.133333
-1.6359926 -8.6596394 -0.77274978 27
-1.7272557 -8.5951567 -0.46481216 65.98333
-1.7158592 -8.5912857 -0.084336437 45.875
-1.6435736 -8.6309996 -0.49142033 87.974998
-1.6385323 -8.6142902 -0.10810399 48
-1.7063715 -8.6380033 -0.82716554 9.25
-1.667876 -8.6695204 -0.36773688 79.583336
-1.6618851 -8.6489725 -0.059206441 41
-1.6269264 -8.6315994 -0.37498435 43.059525
-1.6349689 -8.6280441 -0.62049824 17.5
-1.6049864 -8.6265593 -0.23329604 71.486107
-1.6894004 -8.5570927 -0.78027791 2.5555561
-1.6764565 -8.6711149 -0.71036637 0.91666698
-1.6310599 -8.6121998 -0.0080254097 12
-1.6152794 -8.6301737 -0.7663455 4.5
-1.6097171 -8.6331854 -0.30375099 91.952385
-1.6305158 -8.6494579 0.00033501 6
-1.6686025 -8.635458 -0.77282465 30.75
-1.6031768 -8.5913639 -0.070708387 54
-1.6323764 -8.6199808 -0.50298125 100.75
-1.6425459 -8.5889912 -0.19022369 65.888885
-1.6616788 -8.5798225 -0.68547058 20
-1.6108453 -8.6501818 -0.78525275 21.25
-1.6119637 -8.6217861 -0.46562892 86.155556
-1.6217215 -8.6025314 -0.073418617 52.733334
-1.6407115 -8.6692257 -0.78519905 8
-1.615078 -8.6407909 -0.46106374 90.799995
-1.6494749 -8.5986328 -0.063868403 48.5
-1.6830122 -8.6442394 -0.74550951 38.650002
-1.5971429 -8.6187973 -0.33710238 255
-1.7287228 -8.5829086 -0.10473976 62.541664
-1.6197286 -8.6031799 -0.17760304 50
-1.6961772 -8.6513205 -0.61546004 9
-1.7146084 -8.617589 -0.37311065 102.75
-1.6464033 -8.6493521 -0.13151674 42.200001
-1.6445072 -8.6758614 -0.52120924 61.575001
-1.6882544 -8.6317272 -0.11410466 51.738094
-1.7051618 -8.6201286 -0.69161171 39.185184
-1.6478496 -8.6043768 -0.037940159 43
-1.6209693 -8.6557159 -0.57456082 2
-1.6239977 -8.6198406 -0.32523489 65.708328
-1.5888004 -8.5944567 -0.076815948 25.142857
-1.6825981 -8.6360941 -0.79113382 5
-1.6258945 -8.6719074 -0.69773149 1.666667
-1.719594 -8.6004391 -0.26927498 59.5
-1.6592722 -8.6381874 -0.61697996 11.375
-1.7097282 -8.578722 -0.24930122 39
-1.7023478 -8.6292181 -0.72520971 7
-1.6305132 -8.628602 -0.361312 24
-1.7277899 -8.6001863 0.0085721305 85
-1.6885653 -8.6117649 -0.44131851 28
-1.7286997 -8.5837336 -0.19234496 58
-1.6418085 -8.6230469 -0.42895973 29
-1.6471319 -8.5942793 -0.17742193 44
-1.6514482 -8.6126032 -0.51462144 1
-1.69382 -8.6157627 -0.17687151 37
-1.6719255 -8.5711651 -0.174885 32
-1.7438164 -8.61133 -0.80328757 49
-1.7010956 -8.6140633 -0.18824399 244
-1.694416 -8.584465 -0.26456845 67
-1.6917686 -8.5494251 -0.93927002 23
-1.6275826 -8.6717396 -0.84686118 27
-1.5952072 -8.625164 -0.33917111 72
-1.6240311 -8.6548615 -0.51143408 6
-1.7440376 -8.6203613 -0.42512679 35
-1.6257858 -8.5721397 -0.59773475 24
-1.6993828 -8.5930786 -0.25922358 20
-1.6884232 -8.5339203 -0.23957479 22
-1.707756 -8.6417236 -0.43807226 11
-1.6941032 -8.5801125 -0.31238687 42
-1.7147141 -8.6492157 -0.58596736 255
-1.7092133 -8.5458488 -0.26473176 32
-1.7175903 -8.626297 -0.64300233 255
-1.6619759 -8.6591225 -0.24614263 20
-1.6794319 -8.5421982 -0.56464738 255
-1.6906624 -8.6272812 -0.67343301 32
-1.6877937 -8.5512505 -0.50661635 255
-1.6609039 -8.5768738 -1.1518588 2
-1.6909981 -8.5624886 -0.59510148 255
-1.6788368 -8.6583748 -0.72365677 34
-1.6820641 -8.5664673 -1.0458248 29
-1.6415787 -8.6564598 -0.82232761 33
-1.6602211 -8.5465355 -0.44285917 255
-1.654789 -8.5624084 -0.51252151 255
-1.6069679 -8.6355705 -0.17392099 7
-1.7081871 -8.6212044 -0.50802797 255
-1.6591682 -8.5664711 -0.14669269 42
-1.683548 -8.6183395 -0.55610681 255
-1.6614723 -8.5772285 -0.41096163 255
-1.7141476 -8.6264305 -0.46937418 255
-1.6806412 -8.6736221 -0.3382194 255
-1.7036572 -8.6445427 -0.31147552 255
-1.6717739 -8.5953026 -0.59680068 255
-1.6518574 -8.6033745 -0.97562265 81
-1.6383018 -8.6069183 -0.57830167 255
-1.721035 -8.645031 -0.39730477 255
-1.7066021 -8.5798759 -0.59279668 255
-1.7131557 -8.5558853 -0.66171253 1
-1.703371 -8.635704 -0.75784528 41
-1.6562233 -8.6401711 -0.38839614 66
-1.6430225 -8.6670723 -0.53130639 255
-1.6946507 -8.6483536 -0.7845639 41
-1.6401234 -8.6623116 -0.34333849 37
-1.7264538 -8.6244621 -0.59036827 255
-1.7042599 -8.5917473 -0.32591474 69
-1.6029778 -8.6025581 -1.0266787 7
-1.7053356 -8.6362038 -0.71208155 79
-1.7350178 -8.6113091 -0.60528898 255
-1.669529 -8.6016617 -0.49908364 255
-1.6096649 -8.6176872 -0.14358306 4
-1.7340813 -8.6102982 -0.68040299 208
-1.7314129 -8.6016159 -0.61840546 255
-1.7321053 -8.5965385 -0.27218413 60
-1.6906624 -8.6401062 -0.61226511 255
-1.7367992 -8.6121292 -0.54525971 255
-1.6901321 -8.6591835 -0.64018273 255
-1.6673698 -8.6777725 -0.55511057 255
-1.6833916 -8.6072845 -0.30600506 25.5
-1.6536064 -8.6179314 -0.25195169 18
-1.6822338 -8.6471024 -0.67732769 38
-1.7081089 -8.6096306 -0.18908435 3
-1.669754 -8.6507149 -0.60420084 255
-1.7143784 -8.5729141 -0.37337244 40
-1.7272949 -8.6296501 -0.46553439 255
-1.7124252 -8.591629 -0.37371641 255
-1.7030697 -8.6141815 -0.35069859 81
-1.7274055 -8.6053963 -0.69576669 134
-1.7181721 -8.5765572 -0.3276794 73
-1.729414 -8.6067352 -0.66896009 255
-1.7011299 -8.6367569 -0.60192859 255
-1.7183838 -8.6139717 -0.37315941 106
-1.6643639 -8.6669159 -0.56168485 255
-1.7097797 -8.6323013 -0.92262387 66
-1.737627 -8.6059761 -0.50566137 255
-1.641922 -8.6394386 -0.34428644 24
-1.6334381 -8.6446114 -0.33600736 51
-1.697731 -8.6266479 -0.28204 72
-1.7260532 -8.6256561 -0.98614627 74
-1.6840534 -8.5979881 -0.19192529 51
-1.6848564 -8.5972862 -0.28510845 60
-1.7100754 -8.5844498 -0.15303439 79
-1.7215614 -8.59478 -0.89061081 72
-1.703907 -8.549099 -0.53445083 74
-1.7261944 -8.5760117 -1.0183778 72
-1.6320686 -8.59375 -0.23134041 32
-1.7155685 -8.5875893 -1.0108603 71
-1.7078514 -8.6543732 -0.58836687 255
-1.7099667 -8.6047974 -0.48319805 255
-1.6990757 -8.6280937 -0.32378924 77
-1.7206821 -8.6429558 -0.46864951 255
-1.7290344 -8.5907249 -0.7051363 255
-1.7293453 -8.5807114 -0.1971935 66
-1.6856403 -8.6464958 -0.69838405 69
-1.7083015 -8.6498795 -0.42718112 255
-1.6724815 -8.6585655 -0.98014235 64
-1.7140675 -8.6061554 -0.54107702 255
-1.6865387 -8.6551666 -1.0118724 50
-1.7316227 -8.6029549 -0.67989004 165
-1.6918297 -8.6053848 -0.54143262 255
-1.7198105 -8.5764771 -0.27089429 78
-1.7373066 -8.6106491 -0.90477812 74
-1.7373333 -8.6303329 -0.99976766 71
-1.6928062 -8.6270714 -0.49863327 255
-1.7278385 -8.6165504 -0.87853432 81
-1.7168694 -8.5784225 -0.2431587 77
-1.7107944 -8.5800438 -0.25824535 74
-1.7057552 -8.5939636 -0.40749073 189
-1.717905 -8.6160011 -0.9597981 76
-1.7216759 -8.5853462 -0.40308952 255
-1.6979275 -8.6079025 -0.2345823 76
-1.6483841 -8.6317825 -0.30523729 55.5
-1.6477776 -8.6409607 -0.49621594 255
-1.7075233 -8.6278725 -0.44743443 177
-1.6761627 -8.6129189 -0.32891369 55
-1.7319088 -8.610775 -0.50101233 255
-1.6937218 -8.6240883 -0.37138689 81
-1.7149982 -8.5695648 -0.17418289 68
-1.7036648 -8.6528206 -0.75485528 72
-1.7126312 -8.5958633 -0.88054562 39
-1.7344246 -8.6046295 -1.0756741 3
-1.6729832 -8.5938377 -0.28244853 48
-1.6974506 -8.6503525 -0.46258736 255
-1.6528683 -8.6138153 -0.53082085 13
-1.6754951 -8.5750046 -0.1464262 25.5
-1.6650982 -8.6597786 -0.63570106 255
-1.6629028 -8.675869 -0.56956971 255
-1.6935377 -8.5828247 -0.26265144 70
-1.6945057 -8.6111145 -0.61344761 255
-1.6536522 -8.6142082 -0.77115381 59
-1.6271729 -8.6098022 -0.43449515 255
-1.7332087 -8.6335335 -0.85322636 72
-1.6382365 -8.6004562 -0.38750911 72
-1.7178435 -8.6110458 -0.56749237 69
-1.6232686 -8.5735588 -0.28992242 83
-1.7458353 -8.6242981 -1.0477829 27.5
-1.6709037 -8.5705986 -0.33284402 55
-1.6566546 -8.6197968 -0.7810415 57
-1.6774163 -8.5769386 -0.35593218 255
-1.703022 -8.5658798 -0.64886749 129
-1.6819633 -8.5380249 -0.29830927 42
-1.6139309 -8.6373482 -1.1234488 26.5
-1.5997145 -8.5951347 -0.64072561 42
-1.5890181 -8.6010208 -0.18920928 56
-1.6057445 -8.5805588 -0.49250519 186
-1.675076 -8.5985832 0.016304821 18
-1.6296901 -8.5897903 -0.46575853 51
-1.6835048 -8.5718346 -0.33153525 255
-1.6647062 -8.5669289 -0.63157183 62
-1.6142762 -8.6106415 -0.97008204 35
-1.6643419 -8.5724487 -0.63855529 61
-1.6251507 -8.5674744 -1.0309216 18.333334
-1.6412756 -8.5792313 -0.55480921 41.5
-1.6644249 -8.6268311 -0.81531531 47
-1.5928912 -8.5852737 -0.20856816 28.5
-1.6479774 -8.5494804 -0.15779647 25.5
-1.6688123 -8.6041718 -1.1189548 44
-1.6825275 -8.5733948 -0.81307524 45
-1.6681819 -8.6780758 -0.63555217 60
-1.6981936 -8.6015224 -0.22504458 35
-1.6930537 -8.5664387 -0.78194308 55
-1.5807085 -8.6005745 -1.0369112 19
-1.6664319 -8.6603069 -1.0192046 50
-1.7027335 -8.5330544 -0.4654116 128
-1.7275357 -8.6228046 -0.98246104 20
-1.6441145 -8.636507 -1.0840707 14.333333
-1.6727591 -8.5978317 -0.8155306 38
-1.7052298 -8.6253529 -0.97717929 37.5
-1.6219954 -8.623806 -1.0408061 7
-1.7071366 -8.6375999 -0.5027585 168.66667
-1.6146331 -8.571909 -0.60705405 38.5
-1.6585565 -8.5841389 -0.97313863 45
-1.6638474 -8.5475311 -0.45982009 129
-1.6892385 -8.5767689 -0.81779194 51
-1.6719971 -8.6353226 -0.92848247 53
-1.6626177 -8.5666466 -0.43249434 255
-1.6092215 -8.5877972 -0.91413617 58
-1.6977663 -8.5982342 -0.90085685 33
-1.6947622 -8.6031837 -0.78534383 36.5
-1.6089764 -8.5910778 -0.30772108 52.5
-1.6394567 -8.6194324 -0.90250772 43
-1.6845751 -8.6073532 -0.40330568 56
-1.5935059 -8.5776196 -0.98212141 29
-1.6613312 -8.6383362 -0.96507078 56
-1.6829748 -8.5785847 -0.47583812 114
-1.6120329 -8.6490784 -0.53999352 112.66666
-1.6406441 -8.5713539 -0.36821675 66
-1.6229763 -8.629364 -0.95071834 45
-1.6658411 -8.5832253 -0.46104357 255
-1.6267815 -8.6708546 -1.06103 23.5
-1.6284428 -8.5624657 -0.58806628 126
-1.6454268 -8.5739193 -0.48386049 255
-1.7223082 -8.6052322 -0.4628329 211
-1.6443663 -8.6225815 -0.84962285 55
-1.6606836 -8.6162796 -0.96594995 48
-1.6909666 -8.574316 -0.47836632 209
-1.6614294 -8.601963 -0.76862466 50
-1.6156464 -8.5837421 -0.29340607 64
-1.6414003 -8.6013813 -0.88214993 42
-1.6260052 -8.5835323 -0.39733443 61
-1.5808315 -8.5946941 -0.40383989 255
-1.6200171 -8.5782185 -0.77130389 50
-1.6108103 -8.6189766 -0.98447615 55
-1.6945019 -8.6008568 -0.49436659 169
-1.6333103 -8.6379433 -1.0466865 28
-1.6347771 -8.6157055 -0.5715673 76
-1.6748867 -8.6089134 -0.94479644 44.5
-1.6164598 -8.5606899 -0.89900941 69
-1.7039213 -8.5761833 -0.88642222 18
-1.6433172 -8.6513367 -0.61306065 66
-1.6563225 -8.6306629 -0.89845854 45
-1.6965513 -8.6538563 -0.40634465 89
-1.6128063 -8.6319408 -0.9351902 49
-1.6292028 -8.6018562 -0.46139205 158
-1.7272148 -8.6083241 -0.73020947 52
-1.7065601 -8.6007843 -0.26411879 56
-1.6238146 -8.6146927 -0.45754018 21
-1.5875177 -8.59375 -0.86185366 61
-1.6682348 -8.6246815 -0.85301882 20
-1.6128712 -8.5915184 -0.75620973 47
-1.6458416 -8.5736656 -1.0034435 43.5
-1.624959 -8.5664139 -0.57736796 59
-1.6351166 -8.6320343 -0.99502611 23
-1.6411028 -8.5579243 -1.029359 23.333334
-1.6440468 -8.5752544 -0.66018379 44.5
-1.6254187 -8.6289482 -0.69472331 24
-1.624917 -8.5681248 -0.70583534 59
-1.6466818 -8.6493301 -0.77442294 16
-1.6199217 -8.5618 -0.39985132 154
-1.6294403 -8.6764126 -0.70629555 77
-1.593523 -8.6075974 -0.24789816 60
-1.6851959 -8.6202011 -1.0040708 29
-1.688839 -8.5387402 -0.38095057 70
-1.6508284 -8.5512562 -0.72819781 83
-1.6424656 -8.6628132 -0.83138734 39
-1.6651917 -8.5464249 -0.39908919 128
-1.663784 -8.5432796 -1.0243008 35
-1.6626892 -8.6522121 -0.59407383 52.5
-1.6304321 -8.6028423 -0.93077785 66
-1.6114941 -8.5955029 -0.59593993 84
-1.6118374 -8.5748863 -0.84335411 65
-1.6413994 -8.6029301 -0.86804295 46.5
-1.5882454 -8.6121826 -0.11751716 64
-1.6317949 -8.6104918 -0.65302134 63.5
-1.5797024 -8.5850706 -0.28871182 64
-1.6339407 -8.5601597 -1.0456569 67.5
-1.6372414 -8.6546392 -0.85728401 33.5
-1.628643 -8.596468 -0.50931686 182
-1.6317863 -8.5839891 -0.82519686 71
-1.5948944 -8.6202726 -0.71678293 81.75
-1.6090517 -8.5679207 -0.22951448 78.5
-1.6763277 -8.585537 -0.99551225 52.666668
-1.695013 -8.5687561 -0.50783753 75.75
-1.6505241 -8.5531073 -0.59252745 79
-1.6859713 -8.657836 -0.34881166 100.5
-1.6063814 -8.5732498 -0.78321713 25
-1.6672821 -8.5479984 -0.95643961 83
-1.6213579 -8.5997496 -0.89199018 54.666668
-1.6303797 -8.5856533 -0.44666794 80.5
-1.6452398 -8.6263466 -0.32248899 56.75
-1.5774336 -8.5919027 -0.49428797 82.333336
-1.6167336 -8.5662222 -0.99566126 41.666668
-1.6229324 -8.6348181 -0.92504025 100
-1.6527109 -8.6609526 -0.6417942 60
-1.6235657 -8.6106939 -0.37838909 111
-1.6938477 -8.5593414 -0.84059024 83.166664
-1.5861568 -8.5857353 -1.0218167 32.666668
-1.6408806 -8.6055622 -0.76568735 70
-1.6223326 -8.6565533 -0.88124239 70
-1.6460285 -8.5838604 -0.27268037 22
-1.6015759 -8.6046095 -0.14789972 83
-1.5787477 -8.5978079 -0.39155582 56
-1.6159735 -8.5640421 -0.11150996 77.333336
-1.5825481 -8.6010017 -0.81621087 57
-1.5776882 -8.5776892 -0.84455967 80.25
-1.7443066 -8.6140347 -0.94722915 38
-1.6472235 -8.5637999 -0.48188215 90.5
-1.6373243 -8.5853157 -0.27750167 42
-1.6265707 -8.6276073 -0.91919553 45
-1.6327963 -8.5845261 -0.52467597 104.9
-1.6795721 -8.542346 -0.23016179 57.5
-1.6491165 -8.6037169 -0.31875971 112.41666
-1.6148853 -8.5761204 -0.17193098 36
-1.6427579 -8.587265 -0.92620188 35.777779
-1.6889081 -8.5515099 -0.63315666 53.291664
-1.6568098 -8.5626307 -1.004054 52.333332
-1.6405916 -8.5691442 -0.70611018 47.285717
-1.6110077 -8.6276712 -0.881585 52.966667
-1.6238914 -8.5648994 -0.4621664 196.83334
-1.6246467 -8.6034641 -0.52785397 160.47223
-1.6304522 -8.636157 -0.94749469 35.5
-1.6795173 -8.5548525 -0.69683224 53.700001
-1.6220207 -8.5990667 -0.61429489 122.33334
-1.6110191 -8.5750322 -0.28110749 119.33929
-1.6842165 -8.5716734 -0.82490337 52.76984
-1.6891956 -8.531889 -0.50944668 93.875
-1.6780086 -8.5837183 -0.17703557 35.333332
-1.6837511 -8.5841045 -0.9200666 31
-1.6217146 -8.604969 -0.88816369 45.968613
-1.6119304 -8.5806389 -0.51990199 123.5
-1.6347852 -8.5589895 -0.21947721 47.157143
-1.6613698 -8.5504704 -0.25538576 21.833334
-1.5993528 -8.5881882 -0.80133045 60.07692
-1.6151798 -8.5857334 -0.65114415 126.31667
-1.6825001 -8.5776167 -1.0417993 20.433334
-1.6702101 -8.6743574 -0.94232011 49.837502
-1.6109626 -8.6016407 -0.60213614 78.5
-1.6483977 -8.5966206 -0.66763669 63.694447
-1.6413171 -8.5662651 -0.28641117 125.375
-1.6147163 -8.609024 -0.21781163 42
-1.6024771 -8.6407137 -0.58736944 77.166672
-1.7006278 -8.6059542 -0.23105079 38
-1.6777141 -8.5756035 -0.83531058 65.319321
-1.6461785 -8.5875359 -0.88163763 52.583332
-1.6387926 -8.6049452 -0.27880603 0
-1.650756 -8.5900126 -0.61146724 7.75
-1.6988175 -8.5410261 -0.81667089 22.816666
-1.591877 -8.5907688 -0.99525887 72.824997
-1.6067181 -8.5804386 -0.7873559 58.5
-1.6280951 -8.5673103 -0.30251437 8.1999998
-1.6726344 -8.5359001 -1.0841166 32.200001
-1.6794045 -8.5694885 -0.80670512 64.130951
-1.6999037 -8.5465183 -0.39085349 68.555557
-1.6323056 -8.5694838 -0.31760338 95.400002
-1.7005017 -8.5349655 -0.94136441 40.660316
-1.6133761 -8.5929565 -0.76804143 90
-1.6191494 -8.5736113 -0.47836083 111.5037
-1.6970763 -8.5384712 -0.21614943 41.777779
-1.7167103 -8.6036596 -0.83199549 39.583336
-1.6320717 -8.5791893 -0.65083098 80
-1.7303736 -8.6054115 -0.53934079 255
-1.6684475 -8.5419674 -0.36918569 99.166664
-1.6618817 -8.5710773 -0.7669071 60.055557
-1.6848347 -8.5557671 -0.327501 84.25
-1.6680006 -8.591095 -0.61774743 112.16666
-1.6420897 -8.5758963 -0.30831724 62.25
-1.6789418 -8.5370131 -0.7594443 90.666664
-1.6710997 -8.5574818 -0.73744065 87.226196
-1.6519606 -8.5870552 -0.83546698 65.26667
-1.5773388 -8.5850182 -0.98497295 43.622223
-1.6830549 -8.5656347 -0.56672573 105.23889
-1.6465526 -8.5568409 -0.96544272 47.464287
-1.6066332 -8.5707712 -0.50585973 108.15555
-1.6008668 -8.6051788 -0.88735723 56.066666
-1.6742815 -8.5515223 -0.45503551 133.44444
-1.6084337 -8.5914774 -0.89844203 56.888889
-1.6523607 -8.5497131 -0.45473582 133.74167
-1.6411704 -8.5694284 -0.51010925 104.86111
-1.6159804 -8.6088209 -0.86914986 67.740738
-1.6581687 -8.5510416 -0.42529899 117.50833
-1.6027801 -8.6035156 -0.78692377 63.077778
-1.6944513 -8.5338039 -0.36164701 112.82525
-1.5711958 -8.5805912 -0.32882625 74.916664
-1.7092786 -8.5465021 -0.90895641 57.388889
-1.7187734 -8.5718994 -0.88516897 55.319447
-1.5825419 -8.590107 -0.36682504 87.199135
-1.6196951 -8.5921602 -1.0602198 22.125
-1.618757 -8.5655594 -0.29329836 44.333336
-1.6491151 -8.5515175 -0.3290121 75.541672
-1.650245 -8.5766287 -0.67152739 101.6881
-1.6968963 -8.5274734 -0.31096309 54.483334
-1.6799459 -8.5504074 -0.36952576 101.52222
-1.6075006 -8.5921602 -0.65557861 99.099998
-1.6416688 -8.5630445 -0.36319211 113.3
-1.6272094 -8.5701542 -0.67877156 103.325
-1.6400712 -8.5551805 -0.37872702 112.4
-1.6468122 -8.5655012 -0.67359418 100.275
-1.6669774 -8.5421982 -0.37640968 121.3
-1.6248635 -8.5975485 -0.71715921 61.599998
-1.6915772 -8.5420666 -0.36168873 96.722221
-1.6482141 -8.5677452 -0.75389951 69.724998
-1.6772201 -8.5386581 -0.38563737 97.044441
-1.6538336 -8.5739555 -0.73650259 56.910713
-1.5860977 -8.5980062 -1.0125004 33.983334
-1.667583 -8.5752153 -0.73634666 58.916664
-1.6704576 -8.5743618 -0.72005928 56.3125
-1.6543553 -8.571847 -0.76529884 67.916672
-1.6274467 -8.5996103 -0.7615419 61.416664
-1.6774335 -8.5466242 -0.39818943 106.44444
-1.6112676 -8.5842514 -0.50446326 103.79444
-1.6510741 -8.5619431 -0.21074611 27
-1.6297427 -8.5731506 -0.49118799 99.066673
-1.6431015 -8.5808105 -0.73157698 96.311104
-1.6945127 -8.5378799 -0.37502939 90.055557
-1.6037905 -8.607933 -0.77274293 58.833332
-1.6210113 -8.5620155 -0.32978743 115.93333
-1.6021942 -8.57617 -1.0720574 27
-1.6203945 -8.5997467 -0.78025973 56.694443
-1.6378129 -8.5569468 -0.33709556 84.133331
-1.5970892 -8.6041832 -0.80530089 66.166664
-1.6633682 -8.5471048 -0.37740451 90.305565
-1.6584959 -8.5606737 -0.42176789 111.57407
-1.5910637 -8.6000595 -0.82094359 69.083336
-1.6625704 -8.5433178 -0.39470792 83.985184
-1.6166222 -8.5905409 -0.81965804 69.044441
-1.6727698 -8.5468369 -0.38837525 97.166664
-1.6580141 -8.5534115 -0.365049 80.416664
-1.5798526 -8.5957232 -0.75194609 79.466667
-1.6238613 -8.562706 -0.39043087 104.72858
-1.5923717 -8.5993423 -0.67092437 112.07778
-1.6546748 -8.5887175 -0.97805601 59.708336
-1.6126382 -8.5746613 -0.28691489 49.625
-1.7246214 -8.5795231 -1.0436275 34.777779
-1.6207676 -8.6022091 -1.0322216 43.433331
-1.607491 -8.597971 -0.27840251 56.424999
-1.6495011 -8.6160336 -0.5534426 118.3619
-1.6248105 -8.6170073 -1.0482907 34.099998
-1.7301822 -8.581831 -0.7790916 60.095238
-1.6279299 -8.6221676 -0.99740213 39.125
-1.6929808 -8.6038847 -0.71687347 77
-1.7171532 -8.5803099 -0.42540598 130.5
-1.6360883 -8.5817509 -0.70047748 83.125
-1.6239169 -8.5702705 -0.39717513 119.3
-1.5855575 -8.6075754 -0.87295067 25.347223
-1.6065077 -8.5654278 -0.50212175 139.79999
-1.6485428 -8.5897169 -0.7074939 65.25
-1.668851 -8.5526981 -0.33961278 56.972221
-1.6292372 -8.5652065 -0.59923995 106.66666
-1.5931983 -8.5777903 -1.0178058 37.42857
-1.7019384 -8.5893593 -1.0503081 16.5
-1.6352782 -8.5642223 -0.41121221 125.95556
-1.6616446 -8.5671043 -0.8020916 44.209522
-1.7025812 -8.5698652 -0.94250095 20.277779
-1.6426685 -8.5819006 -0.84696078 30.074074
-1.5988735 -8.5679502 -0.8124963 43.916668
-1.640579 -8.5575161 -0.48922026 144
-1.6885731 -8.5656223 -0.94906628 12.888889
-1.5998734 -8.5726175 -0.54470694 117.8
-1.714753 -8.5693111 -0.94467288 41.5
-1.5916665 -8.5754929 -0.60122252 121.7
-1.6045547 -8.5684357 -0.93505609 36.083332
-1.6345882 -8.5546436 -0.80164576 58.75
-1.6366661 -8.5741949 -0.77221185 52.408337
-1.6249523 -8.5694885 -0.80947047 54.772221
-1.5953462 -8.5702581 -0.84301794 60.185184
-1.7194972 -8.5625305 -0.94408596 42.75
-1.6780555 -8.5678778 -0.93992925 34
-1.642513 -8.5616274 -0.94163501 48.479164
-1.6559633 -8.5447607 -0.92990863 34.472221
-1.6731334 -8.5460148 -0.94445795 34.244446
-1.7195251 -8.5633049 -0.91267842 42.458332
-1.6964195 -8.5625343 -0.90380234 36.299999
-1.6882238 -8.5376768 -1.0028446 30.555555
-1.7071924 -8.5938015 -1.0136123 29.25
-1.7193377 -8.5666647 -0.99662459 7.125
-1.6280377 -8.5846252 -0.63996178 54.375
-1.6689079 -8.5846071 -0.97290903 0
-1.7157412 -8.5769358 -0.75715101 0
-1.6225874 -8.5723019 -0.64449972 13
-1.6547668 -8.5722389 -0.34138817 85.5
-1.6331756 -8.5559559 -0.99189031 2
-1.6664283 -8.5597982 -0.60252947 44
-1.6880257 -8.5317383 -0.29085511 71.150002
-1.6693583 -8.5870485 -0.29323119 147.5
-1.6214437 -8.587594 -0.37098631 109.34285
-1.5817921 -8.5832863 -0.12165073 42.57143
-1.6265535 -8.620266 -0.38504177 63.333332
-1.6998682 -8.5625448 -0.64766598 19.355555
-1.655283 -8.5964031 -0.90875626 19.766666
-1.6434674 -8.5842981 -0.5572896 117
-1.6446409 -8.5614109 -0.20893346 45.166664
-1.6600122 -8.5493269 -0.17340708 1
-1.6755219 -8.6556816 -0.56060553 255
-1.7156219 -8.5552921 -0.14555079 20
-1.7358551 -8.5950623 -1.0618711 18
-1.7252388 -8.5888863 -0.77659917 38
-1.7152176 -8.5705376 -0.41073352 31
-1.7123718 -8.6207848 -1.0287259 27
-1.7107582 -8.6187592 -0.61570388 255
-1.7076874 -8.6336632 -1.1036904 19
-1.7346115 -8.6110077 -0.68226212 255
-1.6949844 -8.6427498 -0.71153432 255
-1.7094688 -8.6229134 -0.78260827 22
-1.7176247 -8.6219635 -0.9492324 27
-1.7383156 -8.5942268 -0.73618782 37
-1.7361145 -8.5965767 -0.76752293 30
-1.7219696 -8.6290588 -0.72345495 255
-1.7309761 -8.6100883 -1.0880857 30
-1.7203178 -8.6001053 -0.76206261 36
-1.7302017 -8.6046486 -0.3988021 27
-1.6710358 -8.5570831 -0.619151 255
-1.7127533 -8.6330338 -0.65793771 255
-1.7189121 -8.5917816 -1.2597876 31
-1.7312231 -8.5963364 -1.186938 39
-1.6917906 -8.5876617 -0.7732091 255
-1.7085371 -8.5572357 -1.0909384 68
-1.7097492 -8.6061516 -0.97539008 74
-1.6278915 -8.6473694 -0.1979261 63
-1.6651816 -8.6476746 -1.0442331 64
-1.5996585 -8.6144714 -0.30601382 53
-1.6416359 -8.6301003 -0.7228207 255
-1.7056751 -8.5807114 -0.7537868 32
-1.6940281 -8.5405464 -0.56946295 255
-1.6028991 -8.6440582 -0.92372316 56
-1.7274586 -8.6212158 -0.9323048 4
-1.6451011 -8.5913811 -0.22946781 75
-1.7103624 -8.5596161 -0.58321613 255
-1.6466801 -8.5874825 -0.78055507 69
-1.644634 -8.556881 -0.63472748 33.5
-1.6759471 -8.5976219 -0.94058454 38
-1.6615301 -8.5511246 -0.29866228 12
-1.6285489 -8.6382256 -0.88750404 65
-1.6628525 -8.5511055 -0.25549263 1
-1.7225761 -8.5859108 -1.1102057 29
-1.707633 -8.542469 -0.48875177 39.5
-1.6090477 -8.638813 -0.9640274 37.5
-1.6510017 -8.6067314 -0.35686061 35
-1.6409836 -8.650425 -0.70638728 111.5
-1.7094946 -8.5660591 -1.065028 58
-1.6404595 -8.578804 -1.0662488 44
-1.6567521 -8.6146736 -0.9019258 33
-1.6600389 -8.5628471 -0.33507016 35
-1.6538339 -8.5721893 -0.63343072 171
-1.6558495 -8.6565456 -0.43365896 34.5
-1.5860419 -8.5873089 -1.0071777 54
-1.6864195 -8.5891209 -1.0044444 31
-1.6160541 -8.6290207 -0.95728695 42.5
-1.6915197 -8.5707932 -0.42931631 5
-1.6096168 -8.6228504 -0.7344014 40
-1.6379066 -8.6194878 -1.1844021 26.666666
-1.6532378 -8.5663319 -0.67700481 129
-1.7285285 -8.599371 -0.69448489 27
-1.6156225 -8.6158867 -0.84752393 53
-1.6109858 -8.6406136 -0.96940827 45
-1.6319475 -8.6399803 -0.89735037 58
-1.6514997 -8.5952873 -0.41998705 55
-1.6493816 -8.6296654 -0.97625268 55
-1.6552906 -8.585722 -0.50050765 74
-1.6966782 -8.6193256 -0.94510794 38.5
-1.6368237 -8.5972252 -0.4756884 73
-1.6361113 -8.6391697 -1.0185874 45
-1.5874367 -8.5739498 -0.30054763 37
-1.6547031 -8.5791645 -0.71243572 21
-1.5891132 -8.6068249 -0.24788868 63
-1.6651201 -8.543005 -0.87514341 39
-1.6805944 -8.6530914 -0.42735767 58
-1.6020937 -8.5770588 -0.33931023 40
-1.7316685 -8.6205959 -0.2791146 56
-1.7011223 -8.6411819 -0.81732297 33
-1.6251011 -8.6246872 -0.89758366 68
-1.6575851 -8.5718689 -0.43634272 152.5
-1.6933899 -8.6069088 -1.0440878 45
-1.7180901 -8.5941715 -0.58045572 64
-1.61728 -8.5923862 -0.19901036 53
-1.6255102 -8.580946 -0.61887997 73
-1.6858006 -8.6297169 -0.89962822 23
-1.6483784 -8.5632992 -0.9708311 83
-1.6978016 -8.6248493 -0.98335761 36
-1.5812216 -8.591713 -0.42217752 142
-1.5813665 -8.6005116 -0.30216175 65
-1.589716 -8.5968876 -1.0537297 75
-1.669589 -8.6181412 -1.0711299 18
-1.6048985 -8.5959854 -0.61297268 79
-1.684803 -8.5332279 -0.74526942 19
-1.6860886 -8.5329628 -0.49037829 119
-1.6624346 -8.5941505 -0.96711296 80
-1.7103577 -8.6455441 -0.97466117 40
-1.6171989 -8.6027985 -0.56604439 181.66667
-1.6997013 -8.593811 -0.95125824 68.5
-1.6013327 -8.59618 -0.55295461 156.66667
-1.6541252 -8.6805792 -1.0481274 25.75
-1.6855526 -8.6006413 -0.81531304 46
-1.6436043 -8.6041422 -0.82092327 37.5
-1.5991583 -8.624444 -0.88560653 30
-1.6289806 -8.5673132 -0.5337038 177
-1.616519 -8.571002 -0.48573244 255
-1.6596041 -8.6170349 -1.0478256 30
-1.661068 -8.5684118 -0.70455843 124
-1.6838694 -8.5785255 -0.80294687 79.5
-1.7004471 -8.6029263 -0.86009854 57
-1.6152096 -8.584013 -0.68914992 132.5
-1.6300135 -8.5772429 -0.38588408 89
-1.5944271 -8.6030836 -0.72737753 92
-1.6823769 -8.5879974 -0.70883477 112.75
-1.7183447 -8.6271725 -0.87567008 59
-1.7070618 -8.5426168 -0.22754848 74
-1.6829691 -8.6040316 -1.0520828 33
-1.5953903 -8.5870199 -0.56007898 78.5
-1.7113409 -8.5861378 -0.71496606 115.5
-1.7124596 -8.5704699 -0.25729716 54
-1.598279 -8.6064672 -0.81848323 77
-1.6501627 -8.6437502 -1.0158302 42.75
-1.6228924 -8.6075096 -1.0375004 66
-1.6621294 -8.5741539 -0.4867965 52
-1.6280336 -8.5766163 -0.43164417 204
-1.5951014 -8.5737534 -1.0599326 73
-1.5955105 -8.582859 -1.024074 71
-1.6502733 -8.6481876 -0.9589417 52.5
-1.6698246 -8.5416899 -0.86617529 66.75
-1.6593866 -8.5755396 -0.65520489 51
-1.6769981 -8.6008444 -1.0063499 58.666668
-1.6174374 -8.5940962 -0.63084996 74
-1.6966658 -8.5416574 -0.94521606 49
-1.6464863 -8.5479908 -0.92121553 58
-1.5963955 -8.5834122 -0.76980805 60.333336
-1.644887 -8.5935478 -0.86632413 43.5
-1.6589489 -8.6269474 -1.0263395 27
-1.5812235 -8.580615 -1.0774174 54.25
-1.6057968 -8.6496687 -1.0659523 33.57143
-1.6386671 -8.5658588 -0.9508903 48.087502
-1.6061993 -8.5768032 -0.25080246 20.25
-1.7127295 -8.5875111 -1.0625755 17
-1.6833854 -8.5444221 -0.91826844 46
-1.6023026 -8.624773 -1.0879354 18.692308
-1.6605606 -8.6479826 -0.9795056 14
-1.6720381 -8.5408611 -0.9056958 31
-1.6819081 -8.5631695 -0.92969275 44.444443
-1.6368608 -8.6097984 -0.99576306 12
-1.7377656 -8.5984411 -0.90930063 23
-1.6362166 -8.5841227 -0.93494058 5.0555558
-1.5869328 -8.5791569 -0.89334732 35.016666
-1.7012368 -8.5346041 -0.81728262 26
