# .PCD v0.7 - Point Cloud Data file format
VERSION 0.7
FIELDS x y z intensity
SIZE 4 4 4 4
TYPE F F F F
COUNT 1 1 1 1
WIDTH 711
HEIGHT 1
VIEWPOINT 0 0 0 1 0 0 0
POINTS 711
DATA ascii
1.1524299 -9.8020229 -0.33704305 23
1.1748338 -9.7895632 -0.59743696 53
1.156852 -9.7846851 -0.54686594 67
1.1832279 -9.7943592 -0.37244096 255
1.1786461 -9.8088961 -0.35461327 120
1.168669 -9.8069115 -0.26992288 255
1.1712148 -9.8067961 -0.54521394 5
1.1695026 -9.823575 -0.016173949 19
1.1637986 -9.8080921 -0.14339256 49
1.1747363 -9.806922 0.017325919 43
1.129236 -9.8139458 -0.0042008199 45
1.0829248 -9.8059597 -0.6521039 0
1.1731005 -9.7696972 -0.77884346 2
1.1835966 -9.7682381 -0.043193132 0
1.1475487 -9.7665138 -0.67450738 0
1.1341028 -9.7272816 -0.27324599 54
1.147356 -9.7845297 -0.36237219 50
1.1450882 -9.750555 -0.27093673 88
1.1580877 -9.7547112 -0.17834303 69
1.1423912 -9.718832 -0.25611138 70
1.1223879 -9.7110929 -0.20511192 21
1.1263475 -9.7239494 -0.22457054 73
1.1507406 -9.7724857 -0.25237179 180
1.2006807 -9.7529345 -1.0283484 18
1.1993523 -9.7400703 -0.56558162 128
1.1957178 -9.7573748 -0.89202648 39
1.1815844 -9.7627926 -0.21344039 40
1.1335845 -9.7072468 -1.0034716 68
1.1247621 -9.7224522 -0.72820896 36
1.1015148 -9.7365608 -0.66688663 59.5
1.105176 -9.7196093 -0.43677461 73.5
1.1238956 -9.766222 -1.0060074 60
1.1371222 -9.7097397 -0.89690679 54
1.1097393 -9.7873201 -0.77877045 31
1.1199708 -9.7517719 -0.5561744 60
1.1097717 -9.783411 -0.66602784 38
1.1115022 -9.7744827 -0.44101986 62
1.0991373 -9.7770977 -0.32902271 55
1.1117754 -9.7879896 -0.21241421 0
1.1271782 -9.779294 -1.0052845 47.5
1.1271095 -9.789607 -0.78284281 22.5
1.1281052 -9.7657661 -0.56522083 70.5
1.1167574 -9.7713718 -0.40061545 57
1.1727018 -9.8150415 -0.97926641 56.5
1.1419172 -9.8066063 -0.75298238 37
1.1090894 -9.7291298 -0.57315063 58.5
1.1375451 -9.7379932 -0.40703994 255
1.1847119 -9.77456 -0.71166623 50.5
1.180932 -9.7775841 -0.50605953 60
1.0900402 -9.7128477 -0.99204427 62
1.1596308 -9.8133268 -0.96417016 47
1.1492333 -9.8078117 -0.76132435 47
1.0909209 -9.7109928 -0.63345844 63.5
1.1414533 -9.8263426 -0.60732144 37.5
1.1208153 -9.7559032 -0.41801667 54.75
1.1205978 -9.7891674 -0.1590499 25
1.1297159 -9.7685528 -1.1351686 42
1.1978898 -9.7347946 -0.91777092 27
1.1399584 -9.7274275 -1.0346794 45
1.1220565 -9.7650375 -0.78118134 44.5
1.1040897 -9.7293444 -0.57200092 53.666668
1.1062136 -9.7812319 -0.32756343 35
1.0906687 -9.7252941 -0.91817963 58.666668
1.1117918 -9.7399702 -0.69536972 54.5
1.1216922 -9.7829332 -0.49006647 48
1.1331725 -9.7645845 -0.29393119 51
1.0877657 -9.7845259 -0.151226 2
1.156672 -9.783885 -0.99618673 55
1.1218295 -9.7228622 -0.91272581 64
1.1252837 -9.7340469 -0.66625923 52.5
1.1080475 -9.7272339 -0.47795913 66.5
1.144381 -9.7812119 -0.26786315 41
1.1122711 -9.8104515 -0.98875082 2
1.1705084 -9.7534618 -0.82268292 6
1.1042118 -9.7049837 -0.65384805 100.5
1.1394169 -9.7447414 -0.4422175 77.5
1.1797626 -9.7336073 -0.28718105 30
1.1064296 -9.7618551 -0.89184248 49
1.1550424 -9.7763329 -0.63566494 85
1.1592381 -9.7370243 -0.89513242 18.5
1.1124423 -9.7359715 -0.66692102 46
1.1278899 -9.7396164 -0.83558291 1.5
1.1584747 -9.7312622 -0.61714935 27.5
1.1186726 -9.7237787 -0.43621182 109.33334
1.13545 -9.7236185 -0.15588135 13
1.1084039 -9.7005386 -0.5514136 31.666666
1.1266599 -9.7267113 -0.31586576 26.5
1.1672014 -9.764245 -0.6070767 0
1.1599284 -9.7224741 -0.50943279 132
1.1428536 -9.7386284 -0.55868679 38
1.1484432 -9.7202978 -0.54409575 37
1.1605545 -9.7593346 -0.46886083 255
1.1013354 -9.7394409 -0.31088269 64
1.1154274 -9.8017426 -0.31011945 0
1.1525445 -9.7509537 -0.45741391 6
1.1463529 -9.7279692 -0.83955622 35
1.1023235 -9.7491751 -0.93226409 38
1.1608448 -9.7338419 -0.43435684 71
1.0899858 -9.7576761 -0.94754648 16
1.1374407 -9.7845964 -0.34756917 35
1.1857367 -9.7614002 -0.39417517 70
1.1543264 -9.7517653 -0.78378469 48
1.1730909 -9.7396326 -0.49825981 80.5
1.1750793 -9.7449198 -0.3655473 14
1.1711981 -9.7986431 -0.23358291 0
1.1075633 -9.7115536 -0.79100055 0
1.1193775 -9.7154751 -0.6508339 3
1.1088139 -9.7070732 -0.67840314 5
1.0831994 -9.7555485 -0.52881593 18
1.0878812 -9.7388277 -0.37201834 7
1.1662288 -9.7274132 -1.0353756 2
1.0722337 -9.7350121 -0.89766341 3
1.1176511 -9.7185764 -0.72396445 11
1.125574 -9.7313309 -0.92196548 4
1.1446443 -9.7214127 -0.75579363 16
1.1724006 -9.7323723 -0.26738179 54
1.1483275 -9.7242012 -1.0248481 0
1.1958531 -9.7491503 -0.85496628 0
1.1934893 -9.7438211 -1.0048927 9
1.1233816 -9.7258034 -0.90489811 10
1.1685141 -9.7279186 -0.25019819 92
1.1749651 -9.7350788 -0.92890704 2
1.1795084 -9.7269039 -1.0048646 7
1.0982637 -9.7641697 -0.97165501 9
1.167943 -9.725256 -0.26039022 56
1.102339 -9.7033234 -0.89930218 15
1.124596 -9.7248344 -0.90447021 4
1.1169947 -9.7368402 -0.89292634 0
1.101318 -9.7324085 -0.90547127 11
1.1137247 -9.7109966 -0.92353964 0
1.0890774 -9.7274904 -0.89621454 0
1.093435 -9.7154703 -0.87407482 5
1.1489357 -9.8120432 -0.81756198 2.166667
1.0811946 -9.7941589 -0.69308734 30.893942
1.177475 -9.8139553 -0.075630702 30.25
1.1626747 -9.8207378 -0.03015168 53
1.1147532 -9.8005619 -0.72486877 40.25
1.1008713 -9.7814217 -0.28729504 85.550003
1.1408232 -9.8101616 -0.02622862 47.666668
1.1857104 -9.7856607 -0.7354973 44.466663
1.1685282 -9.7981958 -0.29978976 71.25
1.1684265 -9.8011484 -0.039062351 67
1.1509048 -9.794363 -0.69328755 60.703705
1.10074 -9.7259808 -0.73138142 39.777779
1.1613222 -9.8307276 -0.040386539 83
1.1670481 -9.8037844 -0.7139864 39.916664
1.09376 -9.7628241 -0.3634907 94.166672
1.0782092 -9.7610111 -0.10364661 61.833332
1.2010937 -9.7579947 -0.54027337 49.5
1.1328894 -9.7577496 -0.10582064 64
1.1928701 -9.7554512 -0.91697776 15.5
1.1747067 -9.8016672 -0.65815502 45.75
1.1140885 -9.8077784 -0.89049423 26
1.1296228 -9.7792377 -0.53580487 74.44445
1.0648137 -9.7611742 -0.18899624 60
1.1735678 -9.7918949 -0.9006297 21.833334
1.0893743 -9.7828007 -0.34938192 109.16666
1.0728585 -9.7660122 -0.089457177 53.200001
1.0658946 -9.7879744 -0.10260677 68.285713
1.1427195 -9.8096886 -0.81336731 0.5
1.1570116 -9.8190565 -0.45831794 46.833336
1.1470002 -9.811779 -0.19342148 11.666667
1.1686555 -9.8309498 -0.10468315 12
1.1251781 -9.7654524 -0.55321282 2.5
1.1534812 -9.8065367 -0.37726501 2.5
1.1646636 -9.7961931 -0.19936332 5
1.166109 -9.815115 -0.31202874 6.75
1.1365499 -9.8175955 -0.55262423 16.25
1.0883081 -9.8065405 -0.18770294 75.160713
1.1387336 -9.8230333 -0.16278225 77.958328
1.1268404 -9.8222113 -0.23937643 58.791668
1.1125505 -9.7693529 -0.6421414 40
1.1340697 -9.7992802 0.01554535 50
1.1387661 -9.825036 -0.76490843 8.5
1.1734972 -9.8156004 -0.8938061 7.2857141
1.1739588 -9.7991581 -0.59957778 33.125
1.1689339 -9.8120527 -0.2129634 100.42857
1.0981989 -9.7890978 -0.60920012 35.5
1.0530477 -9.7804117 -0.22268787 79.666664
1.1628561 -9.8110609 -0.5158056 0
1.1205597 -9.8202896 -0.26695088 4
1.1006861 -9.7664919 -0.64646357 11
1.149621 -9.8319559 -0.65268403 14.75
1.0964136 -9.7731218 -0.26030785 147
1.129344 -9.8085766 -0.11870927 0
1.1345549 -9.8195276 -0.67668128 4
1.1103706 -9.7823534 -0.37967888 8.5
1.0649729 -9.7860546 -0.90561938 9
1.1422348 -9.8254528 -0.61141336 9
1.1265259 -9.8083286 -0.17666507 19.5
1.1791201 -9.7761183 -0.1775943 5
1.1134777 -9.8101082 -0.37005919 0
1.1406822 -9.7358122 -0.73978591 3
1.1314383 -9.8226023 -0.073238641 90
1.0999107 -9.790081 -0.28313681 0
1.1359901 -9.8230019 -0.097608387 14
1.0925064 -9.7336693 -1.081084 8
1.085804 -9.7706623 -0.55573714 37
1.0848846 -9.7176533 -0.86295301 23
1.096138 -9.7865429 -0.2935403 255
1.1733551 -9.8050976 -0.95148182 18
1.1109314 -9.7524605 -0.16603976 35
1.1049118 -9.720089 -0.95159137 58
1.0600967 -9.7684784 -0.85533565 36
1.094738 -9.7961884 -0.60293698 255
1.1053886 -9.8124886 -0.26195967 18
1.1245461 -9.7805595 -0.29879659 16
1.0772705 -9.7568474 -0.66643941 36
1.098793 -9.7160759 -0.34864998 25
1.10783 -9.7617645 -0.58405483 255
1.1265602 -9.7488708 -0.83443856 26
1.0664902 -9.7957535 -1.0586207 13
1.0856361 -9.724102 -0.85448569 28
1.1009331 -9.7760696 -0.85913795 25
1.0969963 -9.7076492 -0.77070069 56
1.0890274 -9.7846642 -0.14669102 22
1.1192436 -9.7445145 -0.64671206 255
1.1318207 -9.7310371 -0.57282758 141
1.09375 -9.8032112 -0.3212347 255
1.094059 -9.7082901 -0.97612524 32
1.1671524 -9.832592 -0.72820222 26
1.1107483 -9.8060722 -1.0738754 36
1.1182747 -9.7489929 -0.73617214 21.5
1.105072 -9.6971512 -0.672351 255
1.0887394 -9.7654762 -0.39693248 77
1.0555611 -9.7805099 -0.9589349 57
1.0822105 -9.7456589 -0.64474046 255
1.1094246 -9.7855377 -0.92072773 65
1.0434036 -9.78685 -0.3386569 62
1.0924683 -9.7778587 -1.0853759 69
1.0834179 -9.7385254 -0.36094671 255
1.1062088 -9.8034554 -1.0932915 65
1.1847649 -9.7966156 -0.85856563 12
1.1202927 -9.7978516 -0.33069122 33
1.0625954 -9.7491379 -0.23309314 31
1.1213627 -9.8223343 -0.52031875 255
1.0849552 -9.79739 -0.96842659 74
1.0902958 -9.7723389 -0.41966063 255
1.0848122 -9.7204552 -0.65174043 255
1.0868473 -9.7561646 -0.37252724 39
1.0625916 -9.794899 -0.47742367 255
1.0479698 -9.7773056 -1.1073577 70
1.0539169 -9.7666702 -0.7021116 212
1.0906315 -9.7983742 -0.8661871 59
1.1252918 -9.8224792 -0.92393243 35
1.0444984 -9.7875786 -1.0327981 37
1.0766296 -9.7962952 -0.26482093 33
1.0717678 -9.7920227 -0.3423934 36
1.0407391 -9.7721367 -1.174121 36
1.1062775 -9.8134918 -0.94458556 62
1.1081295 -9.7970619 -0.95270658 57
1.0760632 -9.7845726 -0.80052876 67
1.134306 -9.7801819 -0.8894223 41
1.0663185 -9.7738876 -0.83709985 78
1.054903 -9.7765083 -0.84900546 72
1.0654526 -9.7684746 -0.93685567 69
1.0562687 -9.7784996 -0.67266238 255
1.1011009 -9.7539978 -0.40982187 41
1.0969448 -9.7812729 -0.96336603 72
1.0958233 -9.7370224 -0.91327465 71
1.1234112 -9.8152733 -1.0461252 34
1.0710697 -9.7665863 -0.6295135 255
1.0603313 -9.7816887 -0.68602622 50
1.1159306 -9.7931862 -0.99078119 61
1.0612354 -9.7605896 -0.38333297 79
1.0504551 -9.7625847 -0.80155933 67
1.0762997 -9.7895126 -0.507851 255
1.0622005 -9.7912025 -0.63787115 255
1.1264534 -9.749527 -0.91780937 55
1.1202145 -9.7954521 -0.86740816 59
1.0999584 -9.81073 -1.14519 10
1.0878944 -9.7974968 -1.0926616 55
1.1439342 -9.8117447 -0.48262858 16
1.0420437 -9.7807732 -0.5212661 255
1.0600815 -9.7721558 -0.74821341 66
1.0627575 -9.7877541 -0.74590075 72
1.0485382 -9.7720795 -0.80847061 58
1.0509338 -9.7643051 -0.86571777 64
1.0520706 -9.7708664 -1.0491977 62
1.0796165 -9.7727318 -0.75690389 68
1.0517216 -9.7656631 -1.0701501 49
1.0872746 -9.7928886 -1.1018629 10
1.0620594 -9.7545967 -0.73233676 71
1.0950394 -9.7703094 -1.0941886 2
1.0548306 -9.7922554 -0.82992005 60
1.0652027 -9.7957306 -0.92199135 79
1.04916 -9.7770691 -0.57826185 255
1.1463776 -9.8148956 -0.8748039 47
1.094965 -9.7853775 -0.91237783 53
1.0900288 -9.7555199 -0.80964184 39
1.0679569 -9.787262 -0.17810726 75
1.141716 -9.8135643 -1.1759257 59
1.0513649 -9.7801132 -0.76191902 255
1.091372 -9.7895126 -1.07669 55
1.1148281 -9.7916832 -0.85982108 54
1.0596967 -9.7818069 -0.95349109 58
1.144043 -9.7853889 -0.61980265 66
1.0774164 -9.7647095 -0.83262515 83
1.07599 -9.7567062 -0.79228634 83
1.1300604 -9.7654991 -0.97444892 69
1.1587331 -9.7602463 -0.95919418 68
1.1189334 -9.7466316 -0.27434111 66
1.1409527 -9.8014946 -0.81035942 60
1.16202 -9.7859955 -1.0142431 9
1.1395676 -9.8003922 -0.33615732 77
1.1040392 -9.7127037 -0.79970539 64
1.0992187 -9.7932358 -0.84429204 73
1.1347331 -9.7631187 -0.37533543 255
1.1452025 -9.7853584 -0.82674348 60
1.1637896 -9.8020325 -0.92997491 35
1.0953439 -9.721386 -0.85316092 74
1.1537631 -9.7241783 -0.2340098 39
1.1764522 -9.7376442 -0.27406365 34
1.1368055 -9.7175865 -0.70172787 72
1.163051 -9.739872 -0.95335698 63
1.1335571 -9.746933 -0.3379471 80
1.1593813 -9.7405548 -0.79507387 70
1.1288357 -9.7558517 -0.18473658 80
1.0807006 -9.8041496 -1.0680132 43
1.0944126 -9.7937965 -0.47944552 255
1.1540861 -9.7410469 -0.8509227 66
1.1288633 -9.7378082 -0.25930706 77
1.1603205 -9.780983 -0.51256096 255
1.0758348 -9.7564697 -0.37892041 65
1.1515913 -9.730278 -1.0133362 41.5
1.1392739 -9.7311745 -0.87652361 78
1.1273541 -9.724968 -0.30354464 43
1.1012774 -9.7548122 -0.56394404 134.5
1.1920397 -9.7390957 -0.80858314 45
1.1309693 -9.7335491 -0.24067584 38
1.1234655 -9.794054 -0.57982671 206.5
1.07722 -9.7771301 -1.1093242 20
1.154808 -9.7299881 -0.58695865 255
1.1206632 -9.7959518 -0.81993669 68
1.1131783 -9.7648239 -0.77583104 78
1.1795468 -9.7478676 -0.96481651 59
1.1550999 -9.7330818 -0.21305256 39.666668
1.1131082 -9.7723598 -0.82517958 54
1.1051383 -9.7603569 -0.33355048 38.25
1.1414828 -9.7680321 -0.86443824 58
1.127048 -9.8022614 -0.71985191 65
1.1511378 -9.7977562 -0.2539019 33.75
1.1649594 -9.7870903 -0.85038179 66
1.1944757 -9.7657928 -1.0098577 44
1.1631103 -9.761507 -0.53795558 176.33333
1.1621814 -9.7557182 -0.73623705 54.5
1.0983253 -9.7722168 -0.64985245 107.66666
1.1398244 -9.7841625 -0.78479856 34
1.0996757 -9.7802677 -0.82230872 74
1.1429992 -9.7680187 -0.37692088 51
1.0555744 -9.7749901 -0.99193728 61
1.1170373 -9.7477989 -0.55201542 232.5
1.1211224 -9.760664 -0.71984553 56
1.1659675 -9.7490005 -0.2793963 40
1.0967131 -9.7915478 -0.86397797 53
1.0968742 -9.7557697 -0.89802098 45
1.1408997 -9.7539444 -0.96591485 48.5
1.0989447 -9.7689037 -0.50267804 206.5
1.1204185 -9.7679539 -0.76615983 64
1.0971375 -9.7573509 -0.31786218 54.5
1.1622076 -9.7728195 -0.93594497 55
1.1827965 -9.7733765 -0.84510607 55
1.1512613 -9.7436962 -0.54504132 255
1.1287146 -9.7914486 -0.49631736 255
1.1463785 -9.8357182 -1.0673449 14.5
1.0735788 -9.7487984 -0.63006568 13
1.1640244 -9.7495556 -0.20794898 58
1.1312342 -9.8042526 -0.87228531 58
1.100584 -9.763483 -0.88042897 47.333332
1.147397 -9.7532539 -0.45499128 255
1.1293373 -9.756916 -0.76891905 53.5
1.1012125 -9.7749271 -0.33151904 60
1.0753241 -9.7344341 -0.68034714 26.5
1.1152096 -9.7437496 -0.25686067 62
1.1477566 -9.8082275 -0.96050191 33
1.1649637 -9.7903557 -0.53230411 255
1.0895767 -9.8030434 -0.35940021 57
1.1901894 -9.7392902 -0.73812306 59
1.1369677 -9.7951946 -0.29390895 66
1.1058674 -9.8012886 -0.35096723 63
1.1406727 -9.8164253 -0.83259225 48.666668
1.0801544 -9.7582054 -0.41036007 255
1.0882587 -9.7653065 -0.85922682 51.5
1.0400209 -9.7757912 -1.0144778 59
1.1815901 -9.7556877 -0.95266587 33.333332
1.1438551 -9.750494 -0.50609118 134.33333
1.176734 -9.7487984 -0.76531112 57
1.1001978 -9.7442532 -0.32576406 57
1.1636066 -9.7230701 -0.60836744 56
1.156229 -9.789999 -1.0105298 42
1.1847315 -9.774025 -0.76822436 46.5
1.1800413 -9.7769985 -1.0157083 29
1.1961527 -9.7699623 -0.93552732 44.5
1.140666 -9.7156887 -0.96444046 26.666666
1.12183 -9.7784061 -0.74905097 41
1.1946583 -9.7742405 -0.31300181 166
1.1160393 -9.806221 -0.55768967 255
1.1880255 -9.7503986 -0.1406765 1.5
1.1819515 -9.7879391 -0.4405995 255
1.1232176 -9.7284718 -0.68927199 36.666668
1.1636839 -9.7607708 -0.27568489 46.5
1.137146 -9.7263508 -0.84669566 54
1.1919603 -9.7795238 -0.93695956 66
1.1252775 -9.8042793 -0.92952901 43
1.1369791 -9.801857 -0.53651744 167
1.1265764 -9.7350788 -0.90202135 43.666668
1.1592932 -9.7246494 -0.53018183 164.5
1.1256781 -9.7266197 -0.44127417 166.5
1.158721 -9.7210274 -0.65586478 57
1.1467447 -9.7182541 -0.28662926 56
1.168561 -9.8129826 -0.71179074 142.83333
1.143363 -9.7542229 -0.72358757 49
1.1629038 -9.7422476 -0.37242848 197
1.1683798 -9.7440748 -0.95323038 58
1.1568537 -9.7497215 -0.60536671 53
1.145525 -9.7501793 -0.25885749 48.5
1.1688757 -9.7554665 -0.84878635 47.333332
1.160429 -9.7517548 -0.50597048 196.33333
1.1692505 -9.7622252 -0.16425633 64
1.1279593 -9.7201815 -0.84493214 45
1.1032028 -9.7063675 -0.50754791 159
1.1168327 -9.701004 -0.17346436 39
1.1635199 -9.7545233 -1.0470655 39
1.1710176 -9.7805309 -0.72384119 61
1.1587715 -9.7850475 -0.40058497 128.5
1.128253 -9.7092209 -0.42470074 58.5
1.1312742 -9.7109175 -0.33639407 49.5
1.1632557 -9.8444605 -0.87448817 33.75
1.174387 -9.8197231 -0.57034141 215.33333
1.152256 -9.7869377 -0.95220488 58
1.142601 -9.7506676 -0.49281928 62
1.1126909 -9.7836733 -0.3270385 54
1.1103373 -9.7017927 -0.94152403 24.75
1.1872463 -9.7495213 -0.93211591 68.5
1.0922155 -9.7612267 -0.92092931 12
1.0989523 -9.7596464 -0.64349043 31
1.1206055 -9.7666798 -0.36604321 173
1.0900097 -9.7383509 -0.85975194 43.5
1.160202 -9.761735 -0.72541428 69.5
1.1279821 -9.7613573 -0.45003939 205
1.1591635 -9.7460327 -0.73759556 54
1.1792259 -9.7309389 -0.37421277 101.5
1.1482439 -9.8150959 -0.72274089 52.5
1.1739025 -9.7745171 -0.40025446 255
1.1002436 -9.7951298 -0.38967034 67
1.1456289 -9.7904358 -0.17036387 59
1.1481266 -9.7300539 -0.92460018 31
1.1136904 -9.7001648 -0.28968748 67.75
1.1519699 -9.7730207 -0.8352114 21
1.123642 -9.7475166 -0.54358113 100.75
1.1833973 -9.7469635 -0.25288931 34
1.1789274 -9.7714615 -0.16587433 71
1.1617088 -9.8165665 -0.29892677 68
1.1313562 -9.7109327 -0.35376522 91
1.1484728 -9.7482891 -0.5852772 104.4
1.1438732 -9.8328276 -0.82727844 59
1.1352377 -9.8041296 -0.37682068 75.083336
1.0980921 -9.7339535 -0.32250071 49.5
1.1843424 -9.7588511 -1.0976551 6
1.1442094 -9.7693768 -0.90189779 33.5
1.138875 -9.7617235 -0.42143303 98.5
1.1640577 -9.8114491 -1.0709624 7.5555549
1.1154361 -9.7029457 -0.73309845 88.106255
1.1149311 -9.7883291 -0.89116979 28
1.0955052 -9.7748632 -0.21661425 55
1.1152043 -9.7023048 -0.46605748 90.699997
1.0917797 -9.7187786 -0.19203968 35.599998
1.1165357 -9.7691441 -0.99726439 42.357143
1.1247621 -9.747611 -0.67502767 104.0375
1.1685386 -9.8004427 -0.55281115 124.5
1.0928149 -9.7257996 -0.30805209 46.333332
1.1633792 -9.772541 -0.29096738 64.196831
1.1301723 -9.7334957 -0.31896496 107.03125
1.0901217 -9.7304535 -0.9516241 41.724998
1.1372428 -9.7279682 -0.24944139 63.200001
1.1792819 -9.7895737 -0.93994808 46.223866
1.1628289 -9.7475338 -0.55820513 143.48929
1.137007 -9.7528467 -0.27409962 69.608337
1.1236887 -9.7399101 -1.1182275 14.047619
1.155947 -9.7904816 -0.97608966 10.882857
1.1037028 -9.7058697 -0.26478189 61.267857
1.0884192 -9.7620182 -0.80011135 58.375
1.1643393 -9.74366 -0.603508 125.6
1.1560333 -9.7463083 -0.31760827 73.885712
1.1919075 -9.7701559 -0.81998402 1.7
1.105212 -9.7116251 -0.52656108 50.933331
1.1101863 -9.7146616 -0.21417415 54.166664
1.1941787 -9.7540836 -0.59736753 44
1.1095918 -9.7340155 -0.35887325 32.833336
1.1716086 -9.7658463 -0.59893256 43
1.1331183 -9.7417994 -0.34503424 57.75
1.1234897 -9.7549829 -0.21430431 39
1.0794144 -9.8009758 -0.57509679 42
1.204469 -9.7485895 -0.61803025 127.5
1.1598871 -9.7487926 -0.36844119 64.400002
1.114663 -9.7516146 -0.48274845 6
1.1902307 -9.7604609 -0.45948181 255
1.1642903 -9.7571898 -0.29201338 49
1.097844 -9.8012524 -0.27186581 0.5
1.076565 -9.7560272 -0.3372131 17.833334
1.1804057 -9.7636843 -0.28737175 0.5
1.1488717 -9.7555084 -0.54622573 9.166667
1.1554518 -9.7737446 -0.73640215 4
1.1506109 -9.7615194 -0.47375256 82
1.148273 -9.7585402 -0.21299694 41
1.1455016 -9.769824 -0.91853696 2
1.153903 -9.7587643 -0.98196507 3
1.1319859 -9.7572632 -0.81237036 12
1.1282179 -9.7650986 -0.81407022 13
1.124902 -9.7469835 -1.0983996 3
1.114503 -9.7621565 -1.1072311 3
1.1100293 -9.7913876 -1.0908896 3.5
1.1798439 -9.7259626 -0.30839562 52.200001
1.0887351 -9.7747564 -1.1006665 3
1.1731678 -9.7270441 -0.35684258 42
1.098797 -9.7343931 -0.9590221 20
1.0765365 -9.7453489 -0.43844914 8
1.1575689 -9.7543268 -0.78287226 0
1.1244869 -9.7336302 -0.24852443 7.5
1.0618057 -9.7606926 -0.96258122 49
1.0446014 -9.782093 -0.94455111 56
1.0609856 -9.7714005 -0.40101814 26
1.0561714 -9.7621841 -0.69404817 255
1.0670471 -9.7614975 -1.1510382 25
1.0640755 -9.773365 -0.46709496 25
1.0577965 -9.7582664 -0.99138123 24
1.1245956 -9.7972755 -0.43809766 19
1.0532875 -9.784256 -0.56419277 255
1.0829582 -9.7367592 -1.1394228 11
1.0744705 -9.7593384 -0.6140157 135
1.0682278 -9.794838 -0.80554461 255
1.0868435 -9.7360497 -1.0183773 83
1.1182575 -9.7294121 -0.73869789 255
1.0925732 -9.7907524 -0.50345206 255
1.1254258 -9.8187752 -1.1189719 57
1.0366931 -9.7832336 -0.39615977 39
1.0747814 -9.7931976 -0.57764596 183
1.1340156 -9.7490349 -0.5968864 80
1.1204972 -9.737484 -1.1118772 65
1.0956993 -9.7298279 -0.42362136 81
1.1331892 -9.7167587 -0.68427163 82
1.085066 -9.7469597 -0.96301144 82
1.074849 -9.7350807 -0.42066938 255
1.175221 -9.7609711 -0.89025545 68
1.0931029 -9.7593918 -0.24100924 64
1.1307151 -9.7697906 -0.45206249 255
1.10054 -9.8073692 -0.70372885 255
1.0978721 -9.7338676 -0.89914787 66
1.1220169 -9.711174 -0.99564707 82
1.1109996 -9.7138176 -0.40417492 84
1.1505334 -9.7901268 -0.57398546 255
1.1338868 -9.7723694 -0.74039519 255
1.1696596 -9.8012905 -1.1392349 42
1.1243136 -9.7824783 -0.60817194 255
1.1913981 -9.7769833 -0.79730636 47
1.1871843 -9.7469864 -0.3330909 26
1.0967007 -9.7326908 -1.1446263 5.5
1.1199651 -9.7784615 -0.80639905 56
1.1297364 -9.7787991 -0.35576326 68
1.1224465 -9.781517 -0.8174637 42.5
1.1165247 -9.771122 -0.3743802 48
1.1626277 -9.764183 -0.92344403 64
1.1296587 -9.7600346 -0.48215508 255
1.1850395 -9.7648926 -1.0317552 54
1.0848503 -9.7199783 -0.5980376 214
1.182044 -9.7931366 -0.37956721 66
1.1573229 -9.7994766 -0.82416081 63
1.117445 -9.7980347 -0.3935304 34
1.1915274 -9.76717 -0.55799627 255
1.1800642 -9.7885475 -0.5590024 255
1.12994 -9.784359 -1.036301 32.333332
1.1382771 -9.7721081 -0.61273247 169
1.1935272 -9.7689438 -0.50742996 192
1.1682005 -9.7981453 -0.44951975 255
1.1467314 -9.7319813 -0.7192598 1
1.1711893 -9.7954178 -0.29883647 52
1.1074133 -9.7390919 -0.74054873 12
1.168808 -9.7423973 -0.77479059 58
1.1188145 -9.7931633 -0.35300109 58
1.1565838 -9.7856026 -0.98192114 58
1.1603832 -9.7592411 -0.98198712 52.5
1.1231813 -9.7603016 -0.56053126 255
1.1277599 -9.7380733 -1.0585649 61
1.0757513 -9.7492256 -0.63730288 99
1.1917257 -9.7375412 -1.0712757 46
1.0813656 -9.8000336 -0.44480267 151.5
1.1838799 -9.7720795 -0.97899914 57
1.166296 -9.7691708 -0.5594635 255
1.129014 -9.7482853 -0.46864241 255
1.1738176 -9.7748432 -0.96590143 56.5
1.1982346 -9.740797 -0.5445047 255
1.1476078 -9.7914085 -0.55571944 99
1.0910645 -9.7475166 -1.0686181 51
1.1766195 -9.8098869 -0.53884953 177
1.1372852 -9.7728024 -0.87880403 39
1.196229 -9.7628632 -0.47382671 205
1.1895628 -9.7573357 -1.0552887 58.5
1.1483402 -9.769474 -0.66603655 61
1.1552401 -9.7796879 -1.1410316 33.666668
1.1878548 -9.7798462 -0.416491 52.5
1.1926136 -9.7420387 -0.88805985 55
1.0957479 -9.7453594 -0.90566212 49.416664
1.0990887 -9.7615137 -0.38213024 59
1.0948849 -9.7485943 -1.0626166 43.333332
1.1734028 -9.7556467 -0.71321684 57
1.1618052 -9.7549334 -0.373133 57.333332
1.1646824 -9.7308846 -0.92538607 60
1.1332159 -9.7412424 -0.6008541 58
1.1000319 -9.7499619 -0.27429694 52
1.1138811 -9.7229671 -0.79831702 60.25
1.0982285 -9.7342148 -0.3172335 37.666668
1.1776142 -9.7499371 -0.95324612 60
1.138588 -9.7577152 -0.3373028 48
1.1277132 -9.7580824 -1.0441699 39
1.1645489 -9.7278233 -0.73876679 68
1.1174469 -9.7575331 -0.74051023 35
1.1813431 -9.7335453 -0.78793287 107.66666
1.1800165 -9.7670546 -0.34047985 47.666668
1.1389275 -9.7560511 -0.53948724 255
1.1932487 -9.765625 -0.24316506 67
1.1726036 -9.7517881 -0.91475052 36.333332
1.1152744 -9.7244835 -0.6300112 194.66667
1.1468515 -9.7448502 -0.34151828 36.75
1.1567736 -9.7581873 -0.98719352 54
1.139679 -9.756444 -0.70430499 48.5
1.1293011 -9.7606649 -0.42253798 50.5
1.1713705 -9.8073807 -1.1481078 27.571428
1.1731796 -9.7584801 -0.86844122 54.666668
1.1826563 -9.7825022 -0.59014702 217.66667
1.193141 -9.7576113 -0.85459483 34
1.181386 -9.7361355 -0.58137262 206.75
1.0968323 -9.7381496 -0.90382457 75
1.100153 -9.7186584 -0.49778426 71.75
1.0702877 -9.7526531 -0.63754427 38
1.2041788 -9.7425585 -0.99213958 47.5
1.1999397 -9.7372599 -0.4612087 203
1.1041975 -9.7148561 -0.92347324 54.666668
1.1079235 -9.71842 -0.66950154 63
1.0824013 -9.7282715 -0.41789615 61
1.1663399 -9.7745266 -0.84438425 53
1.1852226 -9.7436237 -0.46330041 69.5
1.1015711 -9.7396078 -0.80820203 61
1.1925592 -9.7528467 -0.95651191 21.666668
1.1657305 -9.7689371 -0.49243146 53
1.1805182 -9.7735233 -0.43522286 90.333336
1.1570568 -9.7258387 -0.45432794 52
1.1880074 -9.7777557 -0.85719079 36.5
1.1929522 -9.7512512 -0.42109367 108.25
1.1116476 -9.7678337 -0.53852683 49
1.1953011 -9.7694855 -0.929546 69.5
1.1684914 -9.7536898 -0.40018758 65.5
1.1692371 -9.7624292 -0.6132071 54.5
1.1962166 -9.7611637 -0.58547246 68
1.1651478 -9.759819 -0.37993962 99
1.0974417 -9.7087641 -0.35180834 95.875
1.2044554 -9.7422199 -1.0503857 35.857143
1.1910591 -9.7535172 -0.19453649 87
1.1806021 -9.7315359 -0.24307433 81.333336
1.1177435 -9.7068892 -1.1074446 38.57143
1.178875 -9.7258883 -0.44931683 187.33333
1.128046 -9.7239046 -0.24720193 50.75
1.1910391 -9.7597256 -0.99583644 79.5
1.1449165 -9.8137569 -1.1251907 6
1.2076097 -9.7428427 -0.88059288 42.529915
1.1265268 -9.7058353 -0.50518495 104.55556
1.141813 -9.723855 -0.24275306 65.75
1.1643407 -9.7416906 -0.92776924 0
1.1335202 -9.7090321 -0.71843743 2.5
1.1291314 -9.7101822 -0.3722904 75.888893
1.1183593 -9.7249241 -0.17033496 33
1.1159502 -9.6992569 -0.53817374 121.83334
1.1201893 -9.7080603 -0.22383258 69.875
1.1162672 -9.7044106 -0.85610145 33.375
1.082182 -9.7805796 -1.0619187 0.71428603
1.1722777 -9.7273169 -0.71136272 55.263889
1.1246228 -9.7240105 -0.51978004 159.325
1.1207802 -9.7103767 -0.70878673 10
1.1128323 -9.7031832 -0.22953704 97.666664
1.1463821 -9.7156916 -0.8139357 13.777778
1.1548796 -9.7276125 -0.17071949 33.5
1.1581144 -9.7262249 -0.85058022 29.319443
1.1562996 -9.7211571 -0.89661211 15.277778
1.1352426 -9.7111158 -0.49903524 142.91667
1.1099752 -9.7160358 -0.26413041 67.333336
1.1913239 -9.7395754 -0.27927458 64.555557
1.1354835 -9.7213116 -0.85400796 27.300001
1.112884 -9.6988392 -0.26938838 90.199997
1.120006 -9.7029562 -0.48008907 92.375
1.1108015 -9.7103996 -0.32683241 68.642853
1.1411542 -9.7192698 -0.32166559 75.166664
1.1390228 -9.7109661 -0.83567405 57.708332
1.1283472 -9.7079964 -0.4322865 187.94446
1.0983897 -9.7174225 -0.91593939 53.583332
1.1048722 -9.7027683 -0.89641678 57.190475
1.129243 -9.7173691 -0.48422593 55.833332
1.1168144 -9.7410479 -0.94212168 44.099998
1.1025144 -9.7224302 -0.93434078 30.85
1.1269473 -9.7103157 -0.51975775 76.833336
1.1589911 -9.7188148 -1.0399767 21.1
1.131696 -9.7136555 -0.68272573 3
1.1371512 -9.7116547 -0.76178777 2
1.1229407 -9.7257557 -0.6914413 9.1111116
1.1279845 -9.7044649 -0.68040061 60.976192
1.0895646 -9.7244968 -1.0323848 7.8571429
1.120973 -9.7074232 -0.64416063 61.222225
1.1633523 -9.7308245 -0.23329176 41.42857
1.1128635 -9.7133541 -0.6812734 61.611111
1.0989261 -9.8114071 -1.0125502 8
1.1343617 -9.8251219 -1.0239117 0.75
1.1164335 -9.7328396 -0.8902691 0
1.107915 -9.753644 -0.73154539 1
