# .PCD v0.7 - Point Cloud Data file format
VERSION 0.7
FIELDS x y z intensity
SIZE 4 4 4 4
TYPE F F F F
COUNT 1 1 1 1
WIDTH 766
HEIGHT 1
VIEWPOINT 0 0 0 1 0 0 0
POINTS 766
DATA ascii
25.885326 -36.970955 2.3981588 3
25.809107 -37.029911 2.4384656 6
25.995575 -37.099464 -0.35130793 10
25.950516 -36.976974 2.1551189 1
25.918915 -37.076344 -0.4127472 7
25.806929 -37.118011 -0.30823463 14
25.899523 -37.078159 2.5196433 3
25.824644 -37.096981 2.4331217 9
25.841301 -37.008965 2.4865663 5
25.789322 -37.045685 2.4745905 0
25.834576 -37.07579 2.4943764 1
25.969528 -37.077835 2.0635023 1
25.907227 -37.088982 2.2983556 9
25.856361 -37.012558 2.5102787 1
25.867527 -36.967438 2.5189381 3
25.967495 -36.965282 2.4439774 2
25.91185 -36.962193 2.3743775 2
25.902023 -37.103416 2.1800196 4
25.978008 -36.975857 2.3926234 2
25.963619 -36.959599 2.4646347 2
25.962896 -37.076759 2.2195768 22
25.944159 -37.097694 2.2199705 6
25.942577 -36.968765 2.4302893 1
25.916168 -36.984646 2.4682531 4
25.98348 -37.049225 2.2579784 2
26.022955 -37.081024 -0.23188925 0
25.859678 -37.151665 2.4776421 0
25.959032 -37.131809 -0.39834291 0
25.966642 -37.07885 -0.15790085 7
25.9086 -36.999939 2.3327074 6
25.957373 -37.096741 -0.56705654 0
25.955959 -37.060028 -0.090656981 2
26.015709 -37.116432 -0.51236802 1
25.990047 -37.025208 -0.13668022 0
25.990124 -37.088837 -0.31184047 3
25.979034 -37.074642 -0.028128801 5
25.983486 -37.035362 2.2380252 0
25.961781 -37.033199 2.3989956 0
26.034645 -37.128265 -0.39897376 0
25.946249 -37.072231 -0.52063483 1
25.971256 -37.116447 -0.09834788 5
25.850693 -37.145405 2.3352346 3
25.907177 -36.994522 2.3193374 2
25.916969 -37.103779 2.2196376 5
25.969563 -37.100746 2.3796179 9
25.878166 -37.123169 2.4459696 7
25.872128 -37.100662 2.4010286 10
25.939655 -37.138687 -0.29977679 4
25.908905 -37.108593 -0.34939039 3
25.913662 -37.097816 -0.10721619 1
25.857538 -37.083698 2.3195066 15
26.006119 -37.108276 -0.4242489 3
25.998463 -37.114475 -0.17584939 6
25.938789 -37.110359 -0.59469777 7
25.949848 -37.074852 -0.33113533 1
26.018185 -37.081528 -0.29446366 3
25.987999 -37.148975 -0.41060302 0
25.936897 -37.05854 2.5071278 1
25.941132 -36.944752 2.5208154 4
25.935947 -37.046291 -0.1172964 3
25.829363 -37.127266 0.76181942 3
25.811266 -36.948246 2.5513351 7
25.801727 -37.102703 2.6068432 3
25.895817 -36.931347 2.2196956 9
25.781113 -37.070465 2.6481733 9
25.869263 -36.921543 2.4165475 18
25.787106 -37.062038 2.5531921 5
25.864948 -36.924976 2.4474258 9
25.875553 -37.088409 2.4380867 6
25.807545 -36.967781 2.633215 7
25.927311 -37.120102 2.3616555 5
25.926817 -37.104977 1.1008248 2
25.895222 -37.158066 2.3733318 3
25.90111 -37.131409 1.4893024 1
25.851641 -37.153561 1.4998372 2
25.890173 -37.157822 0.58111095 1
25.915907 -37.151596 0.79772151 1
25.990261 -37.09362 2.3779845 4
25.945419 -37.114784 1.1415014 2
25.984518 -37.095303 0.62900889 2
25.957369 -37.108986 2.4123487 4
25.965014 -36.921135 2.3308556 4
25.94343 -37.057472 1.9926637 2
25.991154 -36.955963 1.5436704 2
25.980192 -37.035744 0.8939234 2
25.950661 -37.008617 1.0852389 3
25.963444 -36.917606 2.3261406 9
25.95352 -37.06929 2.2845657 7
25.895296 -37.067841 2.3468819 3
25.834023 -37.149399 2.3801146 2
25.867304 -37.143387 1.3098854 1
25.969788 -37.115654 0.75229216 2
25.881432 -37.14637 2.4117303 2
25.87896 -36.922096 2.5310159 2
25.945452 -36.94838 2.1537631 2
26.013817 -37.032295 1.763495 2
25.956722 -37.100643 0.40663046 2
25.904667 -37.117092 0.95065665 2
25.943417 -37.065857 0.48005068 0
25.950108 -37.121037 0.61937934 2
25.967405 -37.082359 0.82615334 3
25.941069 -37.062412 1.3948832 3
25.981022 -36.927658 2.3765886 2
25.991114 -36.963982 1.7385087 2
25.987499 -37.006485 2.2797208 10
25.97286 -37.059593 1.5616822 2
25.959887 -37.084068 2.0985932 0
25.913593 -37.075016 0.90693575 3
25.880878 -37.124748 0.86916733 4
25.88509 -37.092834 1.8895097 1
25.820724 -37.153706 2.4044743 2
26.021387 -37.040924 1.6741989 4
26.010416 -37.073864 1.6320645 4
26.003027 -37.039738 0.94884515 2
26.003799 -37.034672 1.939606 3
25.882 -37.113953 0.87113702 4
25.947617 -37.056129 0.87980044 3
25.924717 -37.074512 1.3674637 4
25.917631 -37.161457 0.60814679 1
25.881042 -37.08268 1.0223094 1
25.874693 -37.085709 1.4767395 3
25.868294 -37.088638 1.9285032 4
25.991257 -37.053062 1.4768629 4
25.981775 -37.063194 1.921519 2
26.00071 -37.075417 1.2211342 2
25.953251 -37.042259 2.0971484 3
25.917425 -36.954723 2.529398 2
26.011871 -37.041065 1.6732578 2
26.030151 -37.130787 2.5596099 0
25.925594 -37.007587 2.5316865 0
25.9235 -37.089645 1.1782327 6
25.923288 -37.092297 1.6104727 2
25.866161 -37.005535 2.4651587 3.5
25.897188 -37.150078 2.4879253 5
26.006451 -37.054981 1.1159725 3
26.0242 -37.060997 1.5471263 6
25.983021 -37.093925 2.4122345 8
25.965431 -36.985058 2.3970363 3.5
25.833197 -36.997707 2.4382741 0.33333299
25.884369 -37.060532 1.6590736 2
25.804779 -37.103405 2.4859028 1.2
26.005409 -37.022724 1.2246197 1
25.997227 -37.053394 2.0496826 1
25.941874 -37.045616 2.4536161 4.25
25.993504 -37.040226 2.2016177 2
25.981066 -37.136326 2.41592 5
25.929314 -37.122856 1.0654365 0
25.910025 -37.060135 1.4567846 0
25.887714 -37.067684 1.8627218 5
25.870064 -37.003952 2.2563541 3
25.885521 -37.105114 2.2728314 7.5
25.937061 -37.049294 2.0696526 1
25.879353 -36.998737 2.4605918 3
25.844559 -37.109856 2.4721403 1.5
25.999981 -37.097565 1.4263275 1
25.941904 -37.077805 2.2163911 0.5
25.982178 -37.077965 2.5618329 1.666667
25.995745 -37.072975 0.29596749 4
25.974012 -37.044052 1.7386857 3
25.896801 -36.970081 2.4519742 4.5
25.895344 -37.123905 2.4746733 0.5
25.954708 -37.056267 -0.076185517 0
25.971405 -37.123512 0.2862162 1
25.942421 -37.073673 0.98836249 3
25.945675 -37.081657 1.3461137 5
25.930435 -37.083405 1.7011602 5
25.932743 -37.087231 2.0597801 1
25.879044 -37.031792 2.4071667 5
25.848736 -37.093571 2.4135499 5
25.878078 -37.097908 -0.3533774 4
25.805401 -37.047001 -0.01059085 1
25.810898 -37.043385 1.4013143 6
25.803204 -37.049465 1.7565477 2
25.752308 -36.970825 2.4556482 8
25.964247 -37.082039 -0.0952968 2.75
25.988001 -37.049965 0.77779609 3
25.979637 -37.044365 1.127459 4
25.980984 -37.041309 1.4795604 4
25.911808 -37.055355 2.3669574 1.125
26.025179 -37.080177 2.2637341 2.875
25.882643 -37.054474 -0.31339434 2
25.882353 -37.114204 -0.30375388 5
25.875011 -37.090302 0.03291985 2.5
25.904228 -37.070976 0.71850824 4
25.888437 -37.078682 1.0643802 9
25.882633 -37.0797 1.4087167 2
25.852213 -37.101925 2.2805772 2.25
25.889164 -37.103413 -0.35435385 5
25.889952 -37.061981 -0.023521829 5
25.923412 -37.060188 0.47899979 3.5
25.921091 -37.056782 0.98215741 5
25.911402 -37.034332 1.6570424 4
25.906574 -37.047375 1.9972745 4
25.882294 -37.004101 2.3300273 15
25.861034 -36.945095 2.3200297 2
25.872086 -37.091362 2.3404744 6
25.996717 -37.096897 -0.01733977 6
26.023951 -37.094887 0.31946748 4
26.013222 -37.090305 0.65818423 5
26.00429 -37.08881 0.99688143 5
25.993771 -37.080631 1.3334709 5
25.987371 -37.072205 1.8440679 4
25.958691 -37.061562 2.3548973 9.5
25.958515 -37.143764 -0.48748818 3
25.95306 -37.127289 -0.16058341 7
25.991837 -37.142372 0.17238864 2
25.992874 -37.096397 0.49991903 2
25.987812 -37.111008 0.8353802 8
25.989273 -37.119434 1.1695021 1
25.990047 -37.083378 1.8373994 2
25.920368 -37.088879 2.1690133 9
25.830311 -37.0783 -0.28525406 1
25.82037 -37.058407 0.04125851 3.5
25.847317 -37.023296 1.6856108 4
25.842485 -37.028088 2.0181262 4
25.789028 -37.031868 2.347573 14.666667
25.929596 -37.135098 -0.4066481 1
25.903099 -37.095898 -0.085388958 6
25.931412 -37.082932 0.56000632 5
25.923939 -37.045433 0.88070279 3
25.917133 -37.064922 1.2103069 6
25.903587 -37.049492 1.8623555 5
25.881359 -37.010033 2.1844547 1
25.875484 -37.066238 2.1909521 1
25.783672 -37.132607 2.5220134 1
25.797131 -37.021042 2.5092247 4.333333
25.998806 -37.064732 0.0019634301 3.5
26.010672 -37.078758 0.32777387 1
25.999659 -37.064785 0.97307545 6
26.002516 -37.073166 1.3027821 2
25.977314 -37.033176 1.952244 4
25.94537 -37.079987 -0.32185894 0
25.934235 -37.072319 0.14187497 3.5
25.938133 -37.062344 0.91513032 5
25.934307 -37.084335 1.2281115 1
25.918449 -37.060417 1.6953001 3
25.895073 -37.037903 2.1638048 1
25.956888 -37.104324 0.12389757 3.5
25.959118 -37.089336 0.87892914 7
25.957714 -37.055855 1.1785288 1
25.944637 -37.072956 1.487061 7
25.931797 -37.058685 2.0996833 4
25.833519 -36.982273 1.8095391 5
25.929947 -37.073288 0.88973308 2
25.915627 -37.082615 1.3393512 2
25.90937 -37.054394 1.6351271 5
26.00248 -37.108776 0.090020552 6
25.955326 -37.066166 1.6771107 3
25.90579 -37.038471 0.50238353 0
25.918177 -37.06134 -0.093603559 1
26.00106 -37.06443 0.0098024299 0
25.880142 -37.032883 1.8283768 1
25.910316 -36.992889 1.8242798 0
25.961182 -37.075989 0.01508074 0
26.003853 -37.067169 0.5537408 0
25.967329 -37.056252 1.9176176 5
25.936443 -37.064327 1.7223579 0
26.038105 -37.143372 2.5233691 0
25.962414 -37.107536 2.5180728 1.333333
25.899738 -37.034412 2.4931731 16.75
26.011986 -37.10622 2.2743111 8.5
25.894228 -37.123756 2.5332732 3
25.913223 -37.096882 2.4967463 9.666667
25.888346 -37.093422 2.1812704 9
25.912296 -36.999622 2.4105418 7.75
25.81752 -37.142929 2.4454703 1
25.94696 -37.073181 1.7524209 4
25.918745 -37.061001 2.2478874 2.5999999
25.956097 -37.075905 1.5101252 3
25.948959 -37.072285 1.7582214 4
25.920633 -37.075821 2.1320627 8
25.91811 -36.989841 2.4866021 1.333333
25.785131 -37.075203 2.4999287 1
25.897839 -37.084728 0.01494567 2
25.93837 -37.093086 0.99769479 0
25.893661 -37.074978 1.3657001 5
25.87986 -37.056217 1.8574959 2
25.834858 -37.038628 2.2257726 0
25.87299 -36.970631 2.4631445 0
25.984066 -37.05825 2.1306639 0.5
25.949039 -37.001823 2.3573365 0
25.940769 -37.046265 2.2467721 1.5
26.013088 -37.048855 1.8748311 0
25.983978 -37.078201 1.8822802 1
25.950451 -37.068466 2.2385066 3.0999999
25.964256 -37.013748 2.5868115 1
25.960957 -37.084457 1.7875103 4
25.963284 -37.077354 2.0232229 4
26.004477 -36.982895 2.3578861 2
25.894245 -37.051556 2.371351 9.5
25.978985 -37.08157 1.830317 3
25.988327 -37.042038 2.0560074 3
25.966505 -36.972267 2.3911583 6.0500002
26.001139 -37.086327 1.8553442 3
25.9706 -37.06086 2.1988485 7
25.907097 -37.106815 2.3223732 8.5
25.902298 -36.957069 2.5196331 1.666667
25.873013 -37.089485 2.5512533 1
25.968742 -37.060379 2.2678566 1
25.887749 -37.119724 2.3931575 5
25.906019 -37.025745 -0.11422956 2
25.882061 -37.014576 2.194931 17.5
25.838459 -37.058617 2.2038846 3
25.882511 -36.925903 2.4076438 5
25.810173 -37.015594 2.4265895 2
25.965061 -37.025082 2.2491205 8
25.919285 -37.091187 2.2650201 4.5
25.940338 -36.95647 2.4651794 1.5
25.885492 -36.993717 2.472173 3
25.98325 -37.085476 2.2729082 10
25.953518 -37.022629 2.489594 3.5
25.874855 -37.019875 2.4467237 5
25.810255 -37.106915 2.4597096 1
25.901169 -36.986786 2.6759808 1
25.790403 -36.986343 2.4241958 5.5
25.935631 -37.068787 -0.11371538 1
25.873238 -37.030777 2.2689095 2.5333331
25.924313 -37.06694 -0.099549986 0
25.879692 -37.043652 2.1701307 9
25.859703 -37.011341 2.3930836 4.833333
25.941298 -37.055115 2.3099782 5
25.9181 -37.00983 2.530812 0.5
25.96793 -37.082348 -0.096510842 1
25.942062 -37.038578 2.2860379 2.8499999
26.006783 -37.096977 -0.12094751 0
25.95281 -37.110641 2.1678154 0
25.900852 -37.088867 2.3913085 5.4000001
25.942497 -37.064167 2.3210919 3.25
25.894629 -36.977158 2.5297244 0.66666698
25.993021 -37.078995 -0.03162336 0
25.928164 -37.01852 2.3566737 9.125
25.84882 -37.126724 2.4863539 1
25.969173 -37.044876 2.4394846 2.3
25.912827 -37.144775 2.3372545 0
25.913284 -37.024303 2.4924674 2.666667
25.880257 -37.102737 2.3888998 0
25.973469 -36.988815 2.4275708 1.5
25.90773 -37.055695 2.4327393 1.833333
25.968143 -37.030621 2.4604263 2.5
25.914684 -37.082954 2.3480878 1
25.973381 -36.979641 2.3554709 3.333333
25.894051 -37.073517 2.3644717 2.333333
25.984428 -36.968506 2.3816769 2.333333
25.896376 -37.057224 2.3877282 4
25.936493 -37.066471 2.2271843 12.5
25.994469 -37.017204 2.5754952 1.5
25.884167 -37.057556 2.4514523 5.5
25.97716 -37.053886 2.2169156 7
25.925556 -37.028072 2.438302 6.4000001
25.962868 -37.047424 2.2807889 6.25
25.936035 -36.945602 2.4903679 0.75
25.959641 -37.063553 2.2677147 7.5999999
25.95149 -36.947506 2.4771287 0.75
25.952888 -37.055252 2.2668383 3.2
25.911587 -36.95031 2.4738922 1
25.973263 -37.051517 2.2905223 1.75
25.941204 -36.93354 2.4959338 1
25.971043 -37.037544 2.3049948 2.25
25.910103 -36.938068 2.5105507 1
25.92861 -36.948921 2.5151308 1
25.983528 -37.031284 2.2836127 3
25.939293 -37.001175 2.5053732 0.33333299
25.973795 -37.076271 2.2809472 0.75
25.941015 -36.981476 2.4907007 0
26.000385 -37.112919 2.2173166 0
25.997562 -37.051506 2.3365808 0
26.008698 -37.005745 2.4083965 0
25.977074 -37.074516 2.5410764 0
25.94372 -37.013229 2.4112089 0.125
26.003185 -36.99057 2.310957 1
25.937771 -37.033783 2.4334972 1.166667
25.979843 -37.129456 2.1631114 0.5
25.944607 -37.108074 2.1553686 1
25.988857 -36.992275 2.3619106 2.666667
25.90789 -37.129662 2.3932827 3.2
25.950836 -37.070847 2.2127309 1.666667
25.90905 -36.99894 2.4250736 5.5
25.864447 -37.134216 2.4615481 1.333333
25.95417 -37.019711 2.2269044 1
25.923931 -37.094028 2.2458475 3.666667
25.976456 -36.956581 2.4462039 1.5
25.858465 -37.047756 2.4639971 4
25.946224 -37.07756 2.1903598 1
25.992321 -36.961075 2.3965621 2
25.887943 -37.037498 2.4103818 4.8000002
25.980968 -37.01725 2.2569358 3
25.926033 -37.099922 2.2762892 1
25.947479 -36.922386 2.4632111 1
25.863878 -36.964703 2.4688289 1
25.958969 -37.048492 2.2919965 1.75
25.948772 -36.989647 2.5102963 0.5
25.951967 -36.986416 2.3697059 4.375
25.888844 -37.064316 2.3873646 0.75
25.920311 -37.08387 2.3426301 7.1500001
25.92952 -37.03833 2.2747593 12.25
25.852541 -37.108387 2.2879853 1
25.917528 -36.958622 2.4871759 1.4
25.815239 -37.036877 2.4999995 0
26.004028 -37.011444 2.2480822 1
25.937929 -37.088921 2.2622504 5
25.898178 -37.044159 2.481914 7
25.943722 -37.048138 1.8478022 3
25.915012 -37.031639 2.1944728 1.083333
25.886345 -36.944736 2.5220408 0
26.002853 -37.09029 1.9148633 1.75
26.000959 -37.059883 2.261868 1.5
25.935684 -37.147678 2.4424162 0
26.038525 -37.148918 -0.30890501 0
26.039959 -37.140312 1.3492622 5
26.043756 -37.119961 1.7032149 2.5
25.943321 -37.139381 2.3090391 7
26.030777 -37.107948 2.5470324 1
25.958027 -37.147354 -0.39814463 0
25.950813 -37.128895 -0.16081896 5
25.985422 -37.091099 0.066034168 1
25.943071 -37.110825 0.074691623 12
25.988853 -37.111526 0.54728222 5
25.952488 -37.109894 1.0267463 6
25.953428 -37.089462 1.3818533 5
25.947704 -37.058151 1.8556036 2.5
25.916332 -37.066029 2.2221427 0.5
25.856701 -37.054985 2.4606884 5.8000002
25.997404 -37.152645 -0.37070996 5
26.011446 -37.139179 0.95510393 6
26.008759 -37.116833 1.3142449 4
25.987309 -37.119347 1.9252993 2
25.976095 -37.092075 2.2866745 3.5999999
25.927895 -37.049263 2.5193071 2.2
25.846323 -37.144825 2.5454335 0
26.019804 -37.112778 -0.4689889 0.5
26.012619 -37.120495 -0.10165811 4
26.03125 -37.124821 0.26325011 7
26.028923 -37.105453 0.86821342 4
26.030737 -37.09745 1.2323995 1
25.987795 -37.108429 1.6040783 2.5
25.98238 -37.091812 2.0927615 2.5
25.961605 -37.016129 2.4439158 2.8
26.030342 -37.14484 -0.58548456 0
26.022129 -37.127068 -0.33921963 1
26.018791 -37.115578 -0.091314837 2
26.032597 -37.085213 2.0135746 8.125
25.970469 -37.040108 2.378679 2.5999999
25.999779 -37.067116 -0.28838402 1
25.993973 -37.095863 0.093211129 1
25.995243 -37.089211 0.59204119 7
25.990677 -37.080353 0.9661445 7.5
25.985107 -37.071404 1.3403513 6
25.979069 -37.060974 1.7164993 4.5
25.963238 -37.041962 2.2181811 2.875
25.991646 -37.036125 -0.45431483 2
25.954323 -37.082161 -0.3140136 0
25.981491 -37.048794 0.06126748 2.75
25.973682 -37.068378 0.44805944 3
25.972475 -37.053047 0.82796407 6
25.980871 -37.04073 1.3365761 2.5
25.990295 -37.033257 1.7202667 0
25.943584 -37.052803 1.7262925 0
25.945107 -37.039829 2.1105862 0
25.970173 -37.046112 -0.22264646 0
25.972954 -37.066135 0.68071008 5
25.970501 -37.060509 1.0657758 4
25.966829 -37.054611 1.451115 1
26.032343 -37.13308 2.1822228 0
25.987423 -37.110165 2.440362 0.60000002
26.015471 -37.123508 0.15318981 3
26.027451 -37.086685 1.0741609 6
26.021641 -37.087692 1.6077373 4
26.0161 -37.086525 1.8746752 3
25.984566 -37.050564 2.2691877 1.5
25.948179 -37.080215 -0.12428412 3
25.98135 -37.06237 0.27204934 3.75
25.958338 -37.061394 0.67610407 6
25.957207 -37.061169 1.0794841 4
25.947893 -37.055439 1.7541341 0
25.925896 -36.977173 2.2793686 0
25.961491 -37.075653 0.069448493 0.5
25.964979 -37.080811 0.47898403 1
25.958422 -37.07452 0.75139487 1
25.937138 -37.055279 1.2964042 0
25.966286 -37.132477 -0.30254811 0
25.975086 -37.10038 0.11790807 2
26.004482 -37.084442 0.53751427 4
25.999981 -37.07489 0.9616037 2.5
25.995621 -37.062069 1.3866708 1
26.012928 -37.072681 1.6727424 0
26.009945 -37.068058 0.11807345 0
25.972836 -37.10014 -0.01635005 0
25.984589 -37.113461 0.41334939 0
25.9814 -37.116379 0.69983685 0
26.04055 -37.149342 -0.11492983 1.25
26.04343 -37.107422 1.5152509 4
26.042744 -37.108471 1.8141401 1
25.995987 -37.100761 -0.095308617 2
25.957233 -37.144035 0.21476905 1
25.987743 -37.115913 0.66020459 3
25.970116 -37.114193 1.1130859 1
25.994499 -37.096031 -0.22962928 0
26.016323 -37.086987 0.082200758 0.5
26.016041 -37.067532 1.3395056 0
25.869511 -36.999413 2.486289 5
25.809208 -37.13974 2.5328517 3
25.869068 -37.051414 2.3653445 5
25.89624 -36.926941 2.3813119 8
25.806759 -37.021526 2.4091239 8
25.825115 -36.958187 2.4047182 5
25.849197 -37.14793 2.4384851 12
25.82354 -36.995808 2.3458495 8
25.870564 -37.167503 1.5778649 1
25.90753 -37.105442 2.1838284 1
25.938334 -37.136837 0.71449482 1
25.989769 -37.089249 0.74130851 4
25.901873 -37.12899 0.92991424 2
25.957703 -37.08009 0.62960029 1
26.01302 -37.054966 2.296495 0
25.946495 -37.08057 1.04292 3
25.880611 -37.158875 0.75404137 3
25.971489 -37.14286 0.30806279 2
25.927326 -37.145287 1.6152637 3
26.000809 -37.048672 0.43093628 0
25.896948 -37.103912 2.1092401 8
25.840942 -37.138573 1.3798542 2
25.911594 -37.146812 1.0412024 3
25.894203 -37.129059 2.1659508 2
25.957178 -37.112579 1.3801894 3
25.991905 -37.056335 1.0013602 5
26.009628 -37.080296 0.97429866 4
25.984177 -37.101486 0.82018709 5
26.000988 -37.06329 1.8219228 0
26.000549 -37.109226 1.1752125 5
25.940523 -37.013451 2.1696064 1
25.888411 -37.114574 0.57931858 3
25.886858 -37.104496 2.011585 2
25.765562 -37.081635 2.48473 0
25.979404 -37.09626 0.49021411 1
25.880524 -37.042526 2.3769698 0
25.944971 -37.091965 1.5882118 3
25.956326 -37.098957 0.79587191 4
25.944542 -37.055748 1.2507465 2
25.888512 -37.063747 2.1494892 1
25.910013 -37.101677 0.48713198 2
25.915083 -37.123241 0.90428543 5
25.908195 -37.093037 1.7412403 3
25.885471 -37.048317 2.1613669 12
25.893282 -37.124043 2.1565347 14
25.96002 -37.054413 1.436856 0
25.900604 -37.033569 2.2602139 3
25.928621 -37.058556 1.4198492 3
25.906328 -37.082432 2.2205966 1.5
25.995634 -37.082661 1.651306 0
25.920444 -37.133801 2.4388328 2.666667
26.036522 -37.074806 2.2757289 1
25.899788 -37.157421 2.3864176 0.5
25.977444 -37.011673 2.3582795 0
25.946606 -37.059296 1.967092 1
25.926617 -36.941059 2.3340712 0
25.89167 -37.09621 2.3249168 2.666667
25.92765 -37.109058 0.0039639501 6
25.943453 -37.054356 1.4229262 3
25.940947 -37.056297 1.779613 3
25.810123 -37.101025 2.4838252 0.5
25.840042 -36.939224 2.4891043 2
25.923727 -37.142654 -0.41994718 5
25.929487 -37.128395 -0.07151404 3
25.947714 -37.130692 0.6219331 5
25.964872 -37.105106 1.3176519 3
25.93836 -37.046062 2.0161941 0.5
25.93568 -37.140095 2.0110898 1
25.848564 -37.003704 2.3599703 1
25.841602 -37.15992 2.351052 1
25.935093 -37.127365 -0.28563654 5
25.925083 -37.136032 0.057087701 2
25.942017 -37.083984 0.74306518 3
25.950027 -37.088936 1.0872476 3
25.936039 -37.094296 1.4312285 5
25.895176 -37.072708 2.1215196 1.5
25.839382 -36.98484 2.4617915 1
25.815575 -37.110661 2.4569068 1
26.045832 -37.148216 0.79680467 5
26.027023 -37.108242 1.8277082 4
25.978075 -37.10519 2.1682093 1
25.91115 -37.04129 2.5082383 1
25.889418 -37.16259 2.4956961 1
26.005661 -37.139069 0.16253187 4.5
26.0077 -37.108032 1.0035353 3
26.00211 -37.119743 1.3403201 4
25.99037 -37.082821 2.0196421 3
25.930082 -37.093174 2.3507187 8
25.926739 -37.100651 -0.056880999 4
25.924868 -37.045891 1.4419724 3
25.916958 -37.047413 1.9440943 2.5
25.841541 -37.046738 2.4398711 5.8000002
26.012928 -37.100677 2.2427261 4.5
25.926615 -37.076817 2.5667369 1.333333
25.966719 -37.130817 -0.22387446 2.5
25.994333 -37.105194 0.09991049 1
25.980728 -37.100765 0.74808872 3
25.979412 -37.098972 1.0733603 3
25.98037 -37.097351 1.3996308 4
25.9676 -37.094658 1.726511 4
25.92757 -37.118279 2.2145538 4.166667
25.900114 -36.99836 2.3730955 9.5
25.924284 -37.106663 -0.03955324 2.25
25.842916 -37.119537 2.3672848 8.333333
25.832989 -36.974571 2.3612452 13
25.98811 -37.099804 2.2756476 10
25.923264 -37.092327 2.5887063 1
25.8871 -37.06358 -0.51426721 0
25.876865 -37.059868 -0.20553079 6
25.877174 -37.057652 0.10441856 3
25.910088 -37.062099 0.56803477 3.5
25.897156 -37.056873 1.0316815 4
25.887993 -37.053303 1.3416722 4
25.885284 -37.050648 1.6528902 4
25.891811 -37.005779 2.1230989 10
25.853554 -37.069748 2.2773247 22
25.844673 -37.038036 2.5879512 1
25.990711 -37.124752 -0.084588863 6
26.020096 -37.120213 0.22050127 3
26.019711 -37.10878 0.67684734 3.5
26.009426 -37.092525 1.1330137 4
26.006046 -37.082249 1.4385468 3
25.99345 -37.070362 1.7441472 3
25.933434 -37.012737 2.3528371 19.5
25.925182 -37.150368 2.3591857 3
25.996952 -37.115532 0.20197785 2
25.909504 -37.091408 2.3118792 7.666667
25.942768 -37.0788 -0.0039984402 0
25.950987 -37.080845 0.88497615 6
25.952156 -37.071095 1.1813867 4
25.959929 -37.06266 1.4796016 3
25.954752 -37.051525 1.7778548 3
25.867313 -37.067799 2.37131 3
25.987274 -37.135002 -0.0816475 5
26.013374 -37.118973 1.2385238 2
26.011093 -37.091736 1.6810541 4
25.984833 -37.058979 2.1199503 0.5
25.998409 -37.051601 2.2703078 0
25.933464 -37.150978 -0.038654398 2
25.946392 -37.100849 -0.042085629 4
25.959875 -37.112751 1.4040473 3
25.970802 -37.095642 1.6953993 4
25.901415 -37.144634 2.2775815 0
25.930126 -37.082207 -0.25068754 1.5
25.919901 -37.027409 2.0446687 0
25.847807 -37.001038 2.3229823 0
25.828617 -37.074829 2.3318815 4.5
25.977217 -37.075748 0.66681105 0
25.955044 -37.066956 1.7999612 0
25.956295 -36.989773 2.3706472 10.5
25.861656 -37.093174 2.3673961 33.5
26.023403 -37.06728 2.165309 0
25.892239 -37.014915 2.2788136 0.58333302
25.832108 -37.073914 2.4194283 3
25.936726 -37.093506 0.0030407 2
25.997528 -37.142094 1.6510859 2
26.002186 -37.113056 1.9189558 5
25.952871 -37.076351 2.3198071 12.125
25.878033 -37.06646 2.3143778 32.200001
25.900379 -37.053104 2.3756282 26.333334
25.931932 -37.141918 2.2683628 0.5
25.89101 -37.154049 2.5289404 2.5
25.947824 -37.060211 2.392529 5.375
26.009525 -36.998646 2.2346814 1
25.913982 -37.006413 2.3533633 12.25
25.988142 -37.038601 2.625062 1
25.927101 -37.018158 2.4205241 3
25.837975 -37.142456 2.420408 10.25
25.918396 -37.023094 2.3278763 4.458333
25.869583 -37.119457 2.3302295 5.25
25.924332 -37.115559 1.8515619 1
25.959528 -37.011017 2.346941 2
25.917351 -37.035534 2.3407819 6
25.90312 -37.097393 2.217957 15.5
25.840038 -36.975811 2.5711687 1.75
25.821447 -37.156483 1.4541014 2
25.864971 -37.072586 2.1931624 2
25.783743 -37.137764 2.1886277 10
25.863375 -37.020676 2.4390836 1
25.820795 -37.043621 2.4350207 2
25.951077 -37.077072 1.3514578 5
25.933384 -37.078392 1.7173544 5
25.907566 -37.077961 2.208817 4.3000002
25.913113 -37.046379 2.5786438 1
25.99592 -37.034866 2.0985875 8.166666
25.927895 -36.987274 2.4518719 4.5
25.871883 -37.139561 2.4642799 1.5
25.896523 -37.082565 1.4631158 5
25.877106 -37.089378 1.8235533 3.5
25.852982 -37.067219 2.184346 0.75
25.808123 -37.07019 2.4253516 6
26.034927 -37.070164 2.6273215 1
26.016781 -37.122982 -0.14820421 0
25.990145 -37.103695 1.4956084 5
25.984009 -37.077129 1.848121 3.5
25.959301 -37.057007 2.3251266 4
26.000357 -37.01778 2.5680802 1.5
25.996645 -37.118958 -0.31913084 0.25
26.006422 -37.108635 0.98003483 0
25.981709 -37.087116 1.3325288 4
25.976295 -37.078407 1.6915914 5
25.962231 -37.078201 2.0515242 3
25.901264 -37.086655 2.4054585 6
25.952248 -37.123547 -0.060081732 1
25.947798 -37.136452 0.29673749 1.25
25.937414 -37.133751 0.77192891 4.5
25.91452 -37.134769 1.1300858 8
25.916763 -37.129196 1.492604 4.5
25.902674 -37.09943 1.9775305 6
25.875004 -37.014359 2.4637558 2.5
25.807819 -37.106621 2.4516859 7.125
25.893972 -36.993645 2.5925839 1
25.886047 -37.130463 -0.11273922 8
25.897205 -37.124218 0.1294065 2
25.919806 -37.119328 0.49433434 4
25.905128 -37.120655 0.97502482 4.5
25.901043 -37.111248 1.3408911 6
25.905291 -37.104404 1.5867144 6
25.914396 -37.02108 2.3328149 4.666667
25.903212 -37.075619 2.0790224 1
25.836926 -37.171555 2.3135178 0
25.865753 -37.052711 2.5711076 1
25.824829 -37.100574 2.5613451 1
25.980007 -37.133842 -0.05559786 5.5
25.964977 -37.15554 0.064824507 1
26.011093 -37.116291 0.20496444 3
26.00997 -37.117516 0.71224195 5.5
26.000561 -37.101227 1.4805706 5
25.991964 -37.12236 1.8654674 2
25.918343 -37.124832 -0.21528047 3.25
25.930866 -37.140839 0.16911894 3
25.942226 -37.116375 0.68835908 7
25.929218 -37.113377 1.0765245 5.75
25.931858 -37.099842 1.4707446 2
26.030991 -37.121941 -0.0559735 10
26.047215 -37.139576 1.2662356 2
26.010067 -37.110504 0.1436978 4.5
26.02951 -37.123665 0.67416316 1.5
26.031712 -37.099037 0.94269067 2
26.018805 -37.085304 1.340409 4.5
26.008307 -37.078308 1.7425468 7
25.975769 -37.03088 2.2801254 1
25.988811 -37.116959 -0.30526677 5
26.00174 -37.125679 0.10133013 3
26.006897 -37.128654 0.50828522 4
26.013433 -37.106792 0.92370337 6.5
26.011562 -37.105003 1.334334 1
26.001278 -37.099937 1.7476038 4.5
26.014202 -37.027908 2.1763561 4.333333
25.925817 -37.13036 2.1428711 8
25.944302 -37.085548 2.4340184 1
26.010309 -37.121765 -0.26304159 0
26.018417 -37.147232 0.57123482 0
25.993492 -37.127026 0.98946369 1
25.981829 -37.122139 1.4113207 0.5
25.998188 -37.112991 1.8439988 0
26.008598 -37.04253 2.1441436 0
26.000673 -37.139191 2.2322755 2
25.945038 -37.093868 -0.47651985 8.75
26.007435 -37.143196 -0.054635491 5
26.039572 -37.12735 0.79890257 2
26.020592 -37.140499 1.0806832 4
26.003201 -37.120201 1.6506363 3
26.003128 -37.126053 1.3645751 3
26.006165 -37.121208 1.9388287 3
25.973656 -37.086037 2.3697648 4.666667
25.851677 -37.076744 2.126976 0
