# .PCD v0.7 - Point Cloud Data file format
VERSION 0.7
FIELDS x y z intensity
SIZE 4 4 4 4
TYPE F F F F
COUNT 1 1 1 1
WIDTH 1365
HEIGHT 1
VIEWPOINT 0 0 0 1 0 0 0
POINTS 1365
DATA ascii
23.411674 -28.569874 4.5352211 255
23.505676 -28.768312 4.2276702 255
23.45929 -28.553347 4.2808347 255
23.69059 -28.870663 3.5173175 253.5
23.542877 -28.346384 3.659271 255
23.587646 -28.816025 3.7312572 255
23.533447 -28.602917 3.7862718 255
23.613178 -29.110378 3.5023661 255
23.537609 -28.905865 3.5589733 255
23.39748 -28.374418 3.7031622 255
23.595531 -29.121616 3.8741496 235
23.520092 -28.918184 3.9319212 255
23.380314 -28.389414 4.07932 255
23.752285 -29.055353 3.7677751 255
23.660343 -28.745724 3.8530669 255
23.766781 -28.814545 4.3367243 255
23.64922 -28.264345 4.3939714 255
23.749527 -28.917816 4.3750582 255
23.670769 -28.349081 4.4311142 255
23.674419 -28.830456 4.0068741 255
23.601505 -28.49962 4.0347919 255
23.611843 -28.756245 3.689589 255
23.49786 -28.321308 3.7197337 255
23.644108 -29.023462 3.6791215 255
23.561054 -28.696424 3.6973624 255
23.722137 -29.057339 3.9638994 255
23.646088 -28.847633 3.9745891 255
23.630775 -28.717077 3.5096822 255
23.621387 -28.624325 4.3677039 255
23.6623 -28.940847 4.3592467 255
23.569557 -28.500996 4.3758512 255
23.626457 -29.028858 3.7353709 255
23.507607 -28.601526 3.7837317 255
23.467484 -28.379681 3.8090479 64
23.557316 -29.0201 4.1218276 255
23.45274 -28.58639 4.1675429 255
23.578499 -29.014496 3.9228044 255
23.513283 -28.802311 3.9486651 255
23.522594 -28.916605 4.4926038 255
23.44611 -28.58976 4.535706 255
23.358765 -28.616243 4.0281677 255
23.52269 -29.092581 3.4297447 139
23.42189 -28.776787 3.4766865 255
23.500954 -28.778067 3.7248194 255
23.446304 -28.562189 3.7563689 255
23.719013 -28.731361 3.8571026 255
23.667789 -28.512873 3.8789589 255
23.7687 -28.826609 3.5708687 255
23.714691 -28.610106 3.5867398 255
23.604591 -28.177397 3.618994 255
23.457661 -28.840012 3.4007211 255
23.523724 -29.02508 3.4807837 255
23.347897 -28.377161 3.5545924 255
23.487694 -28.825323 3.8912909 255
23.440117 -28.605301 3.9204381 255
23.556519 -28.963036 4.0256362 255
23.437294 -28.413128 4.1005664 255
23.541542 -28.872414 3.5080523 255
23.46196 -28.54249 3.5476613 255
23.663097 -28.750389 3.8391318 255
23.72179 -28.845167 4.5471821 255
23.622601 -28.523836 4.56357 255
23.686913 -29.057919 4.373003 255
23.557007 -28.510653 4.3929749 255
23.521965 -28.800278 4.0706954 255
23.389175 -28.640953 3.8843474 255
23.400757 -28.779531 3.8549283 255
23.492432 -29.139618 3.9259229 255
23.384277 -28.694334 3.958827 255
23.47504 -28.974642 4.5004129 255
23.43343 -28.746101 4.5161905 255
23.435398 -28.499348 4.5343494 255
23.474731 -28.951414 4.1730757 255
23.386734 -28.494587 4.1994491 255
23.466248 -28.772425 4.1154542 255
23.389198 -28.433695 4.139339 255
23.46553 -28.707232 3.5088096 255
23.404198 -28.485289 3.5261078 255
23.560257 -29.059305 4.1098304 255
23.503586 -28.835995 4.1307278 255
23.457283 -28.608242 4.1521831 255
23.55957 -28.691315 3.3916075 255
23.480446 -28.354113 3.4294722 255
23.635315 -28.814844 3.5328579 255
23.500671 -28.254599 3.5925844 255
23.672436 -28.664429 3.6408517 255
23.590046 -28.328787 3.6667879 255
23.638149 -28.538925 4.2191477 255
23.684586 -28.615215 4.2974596 255
23.646339 -28.384666 4.2993422 255
23.666962 -28.626228 4.3583441 255
23.6581 -28.73855 4.0136728 255
23.630535 -28.820557 3.6451859 255
23.552486 -28.485552 3.6520534 255
23.511162 -28.681112 3.3746881 155
23.470821 -29.02846 4.3162699 255
23.405239 -28.687601 4.3332157 255
23.569645 -29.125763 3.5786052 255
23.458736 -28.684959 3.6150918 255
23.704113 -28.953949 3.7332804 255
23.612026 -28.630003 3.763694 255
23.529621 -28.301731 3.7948411 255
23.76664 -28.977022 3.9139314 255
23.689178 -28.767326 3.9358907 255
23.645683 -29.054474 4.0995417 255
23.572441 -28.843853 4.1121597 255
23.517006 -28.625822 4.1257505 255
23.694759 -28.93873 3.7066965 255
23.574444 -28.511623 3.7343578 255
23.769718 -28.92618 3.5598192 255
23.669735 -28.610401 3.5736151 255
23.580708 -29.127321 3.7171369 255
23.51926 -28.89366 3.7487016 255
23.442539 -28.667362 3.7796741 255
23.598932 -28.906937 3.9697409 255
23.562048 -28.748764 3.9906244 255
23.493757 -28.428812 4.0332155 255
23.699804 -28.826015 3.4186091 255
23.655767 -28.671144 3.4355912 255
23.573229 -28.357912 3.4702725 255
23.752653 -28.998745 4.3319392 255
23.666975 -28.689314 4.367023 255
23.611116 -28.274366 4.4155164 255
23.465837 -29.014832 3.4789772 255
23.368719 -28.620615 3.5184555 255
23.316847 -28.469223 3.533802 255
23.486723 -29.104965 4.4015455 255
23.438108 -28.687668 4.4461288 255
23.393232 -28.266405 4.4919786 255
23.500687 -28.742012 3.3715329 4
23.570618 -29.06946 4.2664924 255
23.479507 -28.670374 4.309587 255
23.557516 -28.993414 4.0983906 255
23.45896 -28.509077 4.156949 255
23.654806 -28.864546 3.7482378 255
23.63192 -28.452776 3.4403324 255
23.645325 -28.979292 3.4634337 156
23.525707 -28.598475 3.5002475 255
23.478271 -28.356813 3.5240932 255
23.544992 -28.950424 3.9412236 255
23.545908 -29.012178 3.5116653 255
23.468664 -28.6968 3.523983 255
23.477373 -29.09197 3.9837549 255
23.430174 -28.85018 3.9987504 255
23.531406 -29.111193 4.1895275 255
23.468719 -28.787233 4.2140656 255
23.396698 -28.466866 4.2385511 255
23.536503 -28.938271 3.6700928 255
23.435333 -28.542547 3.702636 255
23.562325 -28.907537 4.5967989 152
23.60997 -29.013109 3.4829443 255
23.554241 -28.773682 3.5044601 255
23.448162 -28.380247 3.540261 255
23.577736 -28.931807 4.4131889 255
23.530468 -28.688763 4.4364996 255
23.545765 -28.322783 4.4739027 255
23.684868 -29.111219 3.9383056 255
23.6199 -28.966619 3.9511116 255
23.567696 -28.726349 3.973439 255
23.607307 -28.825119 3.8043461 255
23.551022 -28.586617 3.825696 255
23.638565 -28.975204 3.9660342 255
23.527264 -28.500008 4.0082445 255
23.634216 -28.849539 3.6096811 255
23.542744 -28.452475 3.6418304 255
23.511559 -28.290348 3.6552715 15
23.582178 -28.946411 3.9930191 255
23.532763 -28.705627 4.0057592 255
23.454237 -28.390081 4.0224705 255
23.490446 -28.774673 3.8256264 255
23.594166 -29.054367 3.4519804 255
23.554199 -28.897112 3.4636896 255
23.49852 -28.658569 3.4817655 255
23.438202 -28.421881 3.4998806 255
23.620911 -29.115931 4.3773413 255
23.522415 -28.723381 4.4084597 255
23.515945 -28.370537 4.4394026 255
23.522881 -28.7393 3.3882899 57
23.558064 -28.899027 4.305613 255
23.475647 -28.497875 4.3428979 255
23.599115 -28.951702 3.7087712 255
23.490946 -28.564363 3.7447248 255
23.568081 -28.752274 3.5368619 255
23.515739 -28.513374 3.560348 255
23.573128 -28.89576 3.7567296 255
23.507126 -28.664614 3.7843232 255
23.585775 -28.973387 4.2716389 255
23.483648 -28.49614 4.3362894 255
23.632984 -29.102695 3.634141 255
23.527992 -28.715424 3.6804867 255
23.466541 -28.481592 3.7088795 255
23.637178 -28.92387 3.6476102 255
23.555952 -28.611113 3.6849551 255
23.497248 -28.374786 3.7134681 255
23.571594 -28.634058 3.3994658 2
23.597317 -28.896866 4.2941389 255
23.524677 -28.579058 4.3293772 255
23.486519 -28.420645 4.3471365 255
23.692009 -29.053188 3.7125378 255
23.610523 -28.830397 3.7427092 255
23.545834 -28.598715 3.7741671 255
23.649185 -28.987719 4.028573 255
23.591679 -28.750849 4.0560617 255
23.505123 -28.350046 4.1031866 255
23.618666 -29.062048 3.7199283 255
23.5156 -28.666489 3.7564931 255
23.445166 -28.432968 3.7782874 255
23.634676 -29.064365 3.5271277 255
23.604204 -28.899778 3.5425291 255
23.534254 -28.664742 3.5645833 255
23.610373 -28.970631 4.4527073 255
23.526552 -28.653341 4.4838614 255
23.557108 -28.798687 3.4013617 18
23.504267 -28.644714 3.4167044 37
23.575117 -29.070265 4.2932777 255
23.485838 -28.574558 4.3452196 255
23.499041 -28.739758 3.4066944 133
23.576967 -29.092302 4.285172 255
23.506056 -28.858892 4.3142471 255
23.466501 -28.337149 4.3804898 255
23.535273 -29.041571 3.9527016 255
23.49404 -28.88361 3.9767194 255
23.450624 -28.636696 4.0141954 255
23.598139 -28.939152 3.9642916 255
23.48266 -28.377035 4.0656009 255
23.65708 -29.042341 3.9651294 255
23.551981 -28.5693 4.0401988 255
23.609121 -28.848614 3.8510852 255
23.557631 -28.698078 3.8723407 255
23.602165 -28.813019 3.939765 255
23.489902 -28.336027 4.0027142 255
23.630774 -28.985697 3.7373457 255
23.593447 -28.826344 3.7561998 255
23.552015 -28.668825 3.7749567 255
23.51359 -28.50951 3.7940216 255
23.647013 -29.01671 3.534883 255
23.566236 -28.79022 3.560679 255
23.535395 -28.627159 3.5792718 255
23.450762 -28.312103 3.6156373 255
23.563227 -28.719234 4.4992394 255
23.67444 -29.084162 3.5957813 255
23.596022 -28.857491 3.621438 255
23.517004 -28.54154 3.657505 255
23.672163 -29.011393 4.5274258 86
23.635183 -28.852976 4.5460939 180
23.624447 -28.926739 3.7112823 255
23.558098 -28.695021 3.7400002 255
23.611599 -28.935598 4.1144762 255
23.506786 -28.459454 4.1742811 255
23.626213 -29.016376 4.001008 255
23.508568 -28.458626 4.0697918 255
23.59705 -28.898373 3.7385473 255
23.492676 -28.50843 3.7857389 255
23.579412 -28.854126 3.7811584 255
23.621962 -28.960384 3.9511909 255
23.561808 -28.72246 3.9730783 255
23.511209 -28.479094 3.9958243 255
23.608438 -28.91033 3.6419315 255
23.509878 -28.512571 3.6784782 255
23.4709 -28.352785 3.6933556 255
23.59712 -28.908054 3.4219849 255
23.522036 -28.589828 3.4550745 255
23.638388 -29.070328 4.3271885 255
23.568918 -28.839769 4.3518314 255
23.54204 -28.675821 4.3698311 255
23.585581 -28.295967 4.4133148 255
23.650957 -29.069796 3.6140308 255
23.542833 -28.682064 3.6586838 255
23.494406 -28.529287 3.6765156 255
23.459616 -28.369202 3.6952696 255
23.683645 -29.080727 4.545701 77
23.606623 -28.766943 4.5832253 255
23.552588 -28.74527 3.9113812 255
23.521982 -28.583353 3.9304013 255
23.597662 -28.852346 3.4637399 255
23.621458 -28.937935 4.3771958 255
23.547102 -28.44235 4.4332147 255
23.634705 -29.03187 4.1052284 255
23.608616 -28.867935 4.1225557 255
23.502132 -28.388802 4.1736279 255
23.60828 -28.964787 3.9403636 255
23.549061 -28.728756 3.9637039 255
23.637571 -29.032429 3.5293584 255
23.590033 -28.878475 3.5423074 255
23.511152 -28.561623 3.5694661 255
23.639685 -29.017595 4.451529 255
23.559336 -28.792074 4.4710851 255
23.528765 -28.629684 4.48599 255
23.564886 -28.252913 4.5234771 255
23.620155 -28.946148 3.5176854 255
23.572361 -28.792149 3.529922 255
23.447147 -28.31953 3.5683866 255
23.675117 -29.077414 4.4280143 199
23.584469 -28.857109 4.4455895 255
23.550629 -28.696455 4.4594092 255
23.562496 -28.242891 4.5017304 255
23.579958 -28.846838 3.81552 255
23.653543 -29.118397 4.1411281 255
23.537981 -28.646875 4.1855617 255
23.456972 -28.333607 4.2155595 255
23.588835 -28.861498 3.7163491 255
23.514814 -28.545771 3.7492137 255
23.473326 -28.389793 3.7656636 255
23.556664 -28.905834 3.7326546 255
23.439404 -28.431631 3.7706366 255
23.63312 -29.105534 3.7016699 255
23.524469 -28.714571 3.7290118 255
23.458521 -28.479786 3.7457383 255
23.561686 -28.912443 3.8114662 255
23.517534 -28.757257 3.82477 255
23.479971 -28.598473 3.838604 255
23.593508 -29.080395 3.6399021 255
23.503965 -28.684685 3.6809902 255
23.445898 -28.448767 3.7058439 255
23.58287 -28.922276 3.8086848 255
23.506401 -28.696659 3.8356776 255
23.618773 -29.024118 3.7515879 255
23.50672 -28.638474 3.7991257 255
23.645102 -29.122028 4.1650138 255
23.563864 -28.80755 4.2003093 255
23.475168 -28.406395 4.2461295 255
23.563152 -28.848583 3.9442055 255
23.490322 -28.527399 3.9777009 255
23.595802 -28.917673 4.1049023 255
23.523434 -28.596189 4.1357298 255
23.495274 -28.430838 4.1518688 255
23.616762 -29.06451 4.1177039 255
23.549486 -28.742296 4.149281 255
23.502798 -28.49786 4.1736131 255
23.637445 -28.892878 3.7390962 255
23.575487 -28.747 3.7541757 255
23.537916 -28.588449 3.770781 255
23.662277 -28.755091 3.9522462 255
23.567715 -28.360285 3.9934363 255
23.646061 -28.941921 4.1810818 255
23.562737 -28.54232 4.2078571 255
23.612116 -28.698668 3.5026007 56
23.646139 -28.892557 4.4162998 255
23.567854 -28.575558 4.4311819 255
23.498665 -28.864437 3.8950858 255
23.424896 -28.538931 3.9058094 255
23.470503 -29.092535 3.5190778 255
23.362143 -28.604383 3.5674548 255
23.442194 -29.01527 4.4395494 255
23.396715 -28.76716 4.4654927 155.5
23.418486 -28.392296 4.5064578 255
23.488531 -29.138994 3.6436725 255
23.439131 -28.894184 3.6679068 255
23.393599 -28.737082 3.6835313 255
23.354628 -28.576342 3.699615 255
23.494478 -28.965563 4.5787711 12
23.431175 -28.943268 3.4711595 255
23.430889 -28.90276 4.4003458 255
23.402145 -28.466761 4.4625354 255
23.51247 -29.054905 3.9765587 255
23.411118 -28.565044 4.0406818 255
23.539747 -29.024937 3.4439547 255
23.46097 -28.704964 3.4903533 255
23.484835 -28.750158 4.4104958 255
23.510324 -28.375555 4.4662361 255
23.547592 -28.990936 3.4708166 255
23.506218 -28.833496 3.5026264 255
23.436016 -28.511417 3.5672774 255
23.50399 -28.769712 4.4505653 255
23.554962 -28.976473 4.0261536 255
23.491913 -28.651104 4.092577 255
23.455975 -28.490246 4.1257219 255
23.634115 -28.840248 4.2580495 255
23.552305 -28.433462 4.337656 255
23.625418 -28.657532 3.9498973 255
23.611696 -28.577784 3.7455668 255
23.530275 -28.258631 3.7942352 255
23.685644 -28.891174 4.1984844 255
23.597315 -28.576834 4.2412395 255
23.548132 -28.33145 4.274786 255
23.646788 -28.910208 3.6179976 255
23.572134 -28.679197 3.6426511 255
23.517443 -28.437326 3.6686606 255
23.569227 -28.689045 4.5621696 255
23.562408 -29.064871 3.7882791 255
23.424686 -28.597548 3.8316751 255
23.527533 -28.904558 3.3837237 3
23.498842 -29.014656 4.2929106 255
23.464895 -28.852978 4.3105106 255
23.435297 -28.238003 4.3794937 255
23.512749 -28.990055 4.0289869 255
23.415386 -28.49645 4.0830903 255
23.525192 -28.750576 3.9690046 255
23.541613 -28.524355 3.8014462 255
23.60297 -28.667397 3.8156826 255
23.556293 -28.509237 3.8269804 255
23.610924 -28.724018 3.5650504 255
23.51738 -28.318205 3.5998514 255
23.551182 -28.478487 4.5060081 255
23.623316 -28.921591 4.2279315 255
23.560213 -28.593803 4.259963 255
23.484766 -28.271509 4.2915454 255
23.574518 -28.802258 3.6382828 255
23.518099 -28.56004 3.6602492 255
23.449934 -28.323414 3.6818075 255
23.61907 -29.059542 4.2475929 255
23.546221 -28.735739 4.2766523 255
23.507177 -28.574753 4.2911806 255
23.474657 -28.410095 4.3062687 255
23.493694 -28.804758 3.8576758 255
23.543024 -28.952469 3.3941758 74
23.504416 -28.789747 3.404762 98
23.488573 -28.853939 4.3157015 255
23.438635 -28.605869 4.3333168 255
23.475985 -28.31152 4.3571615 255
23.554434 -29.101488 4.2058969 255
23.452311 -28.607609 4.2462254 255
23.540956 -28.852833 3.6441309 255
23.475286 -28.613594 3.6661632 255
23.439047 -28.449873 3.6813891 255
23.537481 -28.846613 4.5677872 136
23.558491 -28.552078 3.4153452 59
23.735188 -29.075064 4.2963557 3
23.540321 -28.539343 4.3383274 255
23.492352 -28.290529 4.3591156 255
23.609192 -28.674225 3.6495025 255
23.54282 -28.435669 3.6651375 255
23.50256 -28.27421 3.6759098 255
23.605135 -28.435461 3.4383411 47
23.652826 -28.738955 4.3378 255
23.564753 -28.33054 4.362545 255
23.629093 -28.681154 4.0684052 255
23.593468 -28.518274 4.0781865 255
23.686926 -28.904203 4.0947094 255
23.550741 -28.432877 4.1240368 255
23.660414 -28.955309 3.599158 255
23.561239 -28.555948 3.6270053 255
23.50231 -28.31529 3.6440752 255
23.562696 -28.615559 4.5404892 255
23.564199 -28.782137 3.8865385 255
23.513556 -28.539009 3.9101429 255
23.612993 -28.924524 3.735476 255
23.512445 -28.530212 3.7805161 255
23.517021 -28.512373 3.4260435 255
23.686028 -29.078508 4.2912207 255
23.627937 -28.931856 4.30902 255
23.540752 -28.534477 4.3582077 255
23.561331 -28.950743 3.7715507 255
23.465021 -28.557394 3.8092942 255
23.549664 -28.89197 3.4436674 24
23.554924 -28.967688 4.3671417 255
23.524982 -28.805857 4.3805962 255
23.486446 -28.380703 4.4175663 255
23.552307 -28.882477 3.6958876 255
23.490784 -28.646963 3.7129908 255
23.445511 -28.491846 3.7243414 255
23.586218 -29.014128 3.5450611 255
23.545809 -28.857016 3.5550117 255
23.47048 -28.5392 3.5756216 255
23.424921 -28.384027 3.5857172 255
23.525579 -28.754486 4.4913311 255
23.537172 -28.302755 4.5269623 255
23.655981 -29.086746 3.6623569 255
23.55969 -28.780165 3.6773047 255
23.570528 -28.744488 3.7941675 255
23.507666 -28.421164 3.8092337 135.5
23.693182 -29.108917 3.5445697 255
23.577147 -28.725473 3.5578029 255
23.479273 -28.331276 3.5728385 255
23.498821 -28.773497 3.8181953 255
23.508039 -28.601353 3.4377444 116
23.670784 -28.940466 3.9809985 255
23.582458 -28.640089 3.9818101 255
23.486061 -28.256083 3.984468 255
23.483601 -28.844316 3.5512872 255
23.557755 -29.047089 3.8661256 255
23.502422 -28.819546 3.8672547 255
23.574385 -29.051418 3.5874143 255
23.474337 -28.674072 3.5817637 255
23.564554 -29.030197 4.4654174 255
23.503798 -28.805161 4.4627814 255
23.472025 -28.650217 4.461844 255
23.625195 -28.871546 3.7260413 255
23.559486 -28.648743 3.7276292 255
23.619064 -28.626621 3.8648112 255
23.570892 -28.39772 3.865638 255
23.561214 -28.979391 3.7426116 255
23.492702 -28.67359 3.7291768 255
23.590755 -28.881973 3.390718 123
23.601032 -29.011869 4.2521482 255
23.551319 -28.786001 4.2486176 255
23.504074 -28.558231 4.2454953 255
23.475357 -28.404438 4.243773 255
23.573204 -28.745895 3.5945172 255
23.506786 -28.530451 3.5864778 255
23.622105 -28.931761 4.4646783 255
23.544796 -28.639847 4.4557347 255
23.621988 -28.591785 3.4679432 22
23.647211 -28.759161 4.3164253 255
23.556593 -28.389313 4.3284278 255
23.52492 -28.843943 3.9663272 255
23.461885 -28.546118 3.9798141 255
23.430054 -29.141464 4.224268 255
23.335197 -28.699219 4.2264633 255
23.646091 -28.744183 3.7545843 255
23.554604 -28.378527 3.7606983 255
23.638046 -28.657234 4.5830874 2
23.665277 -28.961325 3.5709939 255
23.610868 -28.745094 3.5568514 255
23.634562 -28.894854 4.3859115 255
23.565275 -28.605082 4.3687158 255
23.643494 -28.966259 3.8582473 255
23.562122 -28.683769 3.8430138 255
23.497643 -28.390919 3.8291888 255
23.649857 -28.856411 4.0324378 255
23.548756 -28.50878 4.0008221 255
23.644941 -28.725687 3.4654438 255
23.57472 -28.439411 3.4618943 255
23.638678 -28.711124 4.2702289 255
23.569746 -28.342918 4.2692609 255
23.694206 -28.849525 3.6990933 255
23.562172 -28.365877 3.6882234 255
23.52383 -28.227457 3.6853013 255
23.667789 -28.748905 4.4987001 255
23.617191 -28.618668 4.4949398 255
23.466616 -28.870989 4.05548 255
23.390909 -28.51783 4.0803051 255
23.457912 -28.784035 3.6006091 255
23.513485 -29.064198 3.5885098 255
23.380962 -28.523649 3.6114104 255
23.74288 -28.748623 3.5893226 255
23.627222 -28.346966 3.6021533 255
23.685804 -28.571421 4.3855548 255
23.645315 -28.361031 4.3945327 255
23.647274 -28.947842 4.0212774 255
23.567657 -28.644264 4.0437803 255
23.499023 -28.335657 4.0677361 255
23.692221 -28.673876 3.5030007 255
23.597721 -28.317232 3.5122256 255
23.609859 -28.949875 3.9657972 255
23.536423 -28.650064 3.9641163 255
23.4575 -28.352461 3.962363 2
23.639736 -28.86302 3.9524446 255
23.570456 -28.559441 3.9592009 255
23.502645 -28.244656 3.9670386 140
23.677799 -28.810232 3.6102266 255
23.585911 -28.445831 3.594429 255
23.51446 -28.178373 3.5828586 255
23.773994 -29.033762 4.2748857 3
23.681843 -28.822462 4.2618484 255
23.596603 -28.477711 4.249126 255
23.565308 -28.295942 4.2444043 255
23.668835 -28.584587 3.9911027 255
23.602314 -29.007568 3.4456863 255
23.484184 -28.560581 3.4738188 255
23.424366 -28.33592 3.4884572 204
23.607204 -28.560926 3.4749961 130.60001
23.668961 -28.859432 3.4978373 159.89999
23.690948 -29.052395 3.6696081 127.5
23.585354 -28.735767 3.4582415 217.25
23.611294 -28.844496 3.5118947 255
23.487057 -28.340023 3.4638071 255
23.598747 -28.440063 3.4519744 127.5
23.545559 -28.596687 3.5884109 255
23.623917 -28.905621 3.6431119 194.16667
23.65933 -28.964781 3.4758999 83.166664
23.576229 -28.650684 3.5154705 198.7
23.62849 -28.904451 3.6401913 255
23.654526 -28.749825 3.4055305 127.5
23.659405 -28.974321 3.5016291 127.5
23.681 -29.097523 3.6643643 127.5
23.536381 -28.492218 3.5473855 234.09091
23.576954 -28.685497 3.6463647 255
23.608788 -28.812544 3.7149472 185
23.586414 -28.528173 3.5412092 158.02858
23.626575 -28.717945 3.6400778 182.69167
23.655096 -28.896425 3.7297258 239.53333
23.696587 -29.051029 3.7132287 64
23.561523 -28.414936 3.8916941 128
23.586639 -28.605534 3.9852138 255
23.635967 -28.843786 4.0078731 255
23.666412 -28.975138 4.0809393 227.8625
23.680321 -28.868149 3.4947064 137.94444
23.549967 -28.525061 3.7035253 255
23.617336 -28.801455 3.8427374 255
23.671322 -29.051231 3.9673421 255
23.738743 -28.755297 3.393693 0
23.604225 -28.721701 3.5143747 255
23.656944 -28.941053 3.589344 219.38461
23.707218 -28.954935 3.4194942 1.666667
23.592018 -28.699224 3.495646 255
23.645058 -28.916866 3.5728002 255
23.689434 -29.104151 3.639616 255
23.570724 -28.583616 3.5264888 255
23.639542 -28.867392 3.6263921 255
23.692463 -29.068855 3.7007558 255
23.66782 -28.81823 3.3895476 92.153847
23.687302 -29.09691 3.5551469 22
23.543941 -28.476542 3.5424807 233.75
23.63044 -28.850565 3.6650584 255
23.687181 -29.052595 3.738086 81
23.711224 -28.848007 3.427124 107.875
23.56147 -28.515118 3.5699816 255
23.655054 -28.887897 3.6965456 222.30769
23.694118 -28.835619 3.4369092 120.54166
23.518356 -28.289154 3.5223215 0
23.5543 -28.501488 3.5840225 255
23.64048 -28.845104 3.700887 229.45454
23.615646 -28.627409 3.4169605 114.21429
23.689663 -28.923834 3.5154059 143.83333
23.568413 -28.553162 3.6648362 255
23.626104 -28.758816 3.7368674 194.16667
23.59313 -28.574713 3.4550385 128.10001
23.674343 -28.832397 3.454052 128.33333
23.692085 -29.084919 3.6134546 127.5
23.545752 -28.505247 3.7047691 255
23.617992 -28.794069 3.8026237 232.46153
23.688335 -28.970686 3.5346513 145.14285
23.570753 -28.577921 3.6788495 255
23.639557 -28.79738 3.7610226 91.599998
23.612053 -28.628563 3.4671555 118.19231
23.671587 -28.95974 3.5701036 175.85858
23.562962 -28.560995 3.7160683 247.2
23.627832 -28.81255 3.8043952 241
23.609858 -28.633921 3.4620755 119.02747
23.671577 -28.957102 3.5638838 175.46667
23.566784 -28.572502 3.715553 255
23.628231 -28.828066 3.8029029 225
23.655994 -28.676231 3.3825552 78.583336
23.665859 -28.957512 3.5464242 191.3125
23.559742 -28.565046 3.6946056 255
23.632027 -28.818069 3.7875016 172
23.674103 -28.977592 3.5363095 152
23.56657 -28.573668 3.6789243 255
23.632675 -28.810547 3.7661576 84.800003
23.610416 -28.661772 3.4637468 119.36325
23.675316 -28.981667 3.5684803 178.40477
23.571777 -28.596518 3.7180495 224
23.639225 -28.847864 3.8092635 160.5
23.557587 -28.462946 3.4805453 173.5
23.624756 -28.709206 3.4727771 127.95
23.675007 -29.003862 3.5645387 201.97916
23.577366 -28.61257 3.7162361 250.33333
23.644604 -28.867105 3.8076775 189.60001
23.583664 -28.564827 3.4707561 255
23.700188 -29.040447 3.5416956 224.375
23.55727 -28.479977 3.6314406 255
23.607529 -28.712883 3.7089527 201.66667
23.668072 -28.904644 3.4788284 187.09091
23.540108 -28.365131 3.4840324 101
23.564211 -28.537722 3.5346556 255
23.639374 -28.857492 3.6462572 255
23.69743 -29.053787 3.7224345 179.5
23.649254 -28.781403 3.3958204 99.045456
23.678591 -29.073475 3.5747406 93.666664
23.504152 -28.298086 3.5013065 85.666664
23.534607 -28.485897 3.5583098 255
23.604029 -28.790531 3.6633828 255
23.662304 -28.986885 3.7395062 178.5
23.693995 -28.814857 3.3894882 0.5
23.719297 -29.056738 3.4604702 0
23.630409 -28.835926 3.5557194 255
23.681498 -29.043657 3.6314521 255
23.678131 -28.93185 3.4673493 153
23.631618 -28.695902 3.408854 1.666667
23.66576 -28.950672 3.4827342 181.39999
23.60881 -28.637117 3.4982102 57.5
23.64436 -28.890011 3.5752125 247.5
23.72044 -29.037544 3.4902 9
23.649532 -28.942846 3.4738817 204.2
23.642494 -28.575136 3.4253054 72.087303
23.665718 -28.938005 3.5562801 127.5
23.681789 -29.038502 3.6997259 162
23.670811 -28.869848 3.4220448 145.55556
23.672344 -28.982254 3.6691961 194.5
23.637283 -28.519611 3.4455156 71.5
23.613449 -28.730263 3.41328 114.06944
23.676437 -29.057468 3.547996 192.875
23.576096 -28.691677 3.7012718 222.85715
23.640438 -28.946095 3.8150785 76.666664
23.596474 -28.567123 3.4467709 92.071426
23.638531 -28.909309 3.5775921 184.02679
23.651443 -29.089308 3.6450279 0
23.519722 -28.459883 3.702565 226.88889
23.590038 -28.801727 3.8467357 196
23.575081 -28.500017 3.5690999 135.88889
23.618351 -28.79369 3.6886048 228.875
23.659943 -29.052999 3.687604 20
23.54286 -28.445007 3.8606205 202.16667
23.594563 -28.73959 3.9881091 255
23.644699 -28.965296 4.0895295 255
23.627556 -28.884111 3.505182 170.33333
23.525427 -28.47422 3.6598203 223.92857
23.61977 -28.883457 3.7189512 228.22223
23.525475 -28.441431 3.9711523 212.5
23.604633 -28.852551 4.033639 255
23.634203 -29.016039 4.1029572 171.625
23.672787 -28.544781 3.4171224 0.91666698
23.598322 -28.656281 3.4423301 128
23.672306 -29.01141 3.4756038 255
23.553352 -28.522566 3.8167653 241.4375
23.634508 -28.869915 3.7449603 235.08334
23.563538 -28.535686 4.0438442 236.85715
23.617584 -28.813427 4.1663876 255
23.66013 -29.031507 4.2631493 200.75
23.498161 -28.346304 3.6427379 255
23.580475 -28.619904 3.648571 212.75
23.530687 -28.494766 3.7019784 255
23.62664 -28.89257 3.7534018 193.25
23.5434 -28.257069 4.0575967 8
23.557873 -28.583742 4.0706186 255
23.519314 -28.420572 4.0009289 255
23.617977 -28.883669 4.1970587 239.41666
23.584072 -28.466976 4.4868135 128.0625
23.515636 -28.377768 4.3183999 255
23.598228 -28.69878 4.5815258 106.93333
23.596291 -28.832703 3.5347917 255
23.463305 -28.262342 3.6360502 255
23.512157 -28.484325 3.7267001 230.07143
23.574001 -28.779093 3.8469737 255
23.494843 -28.376949 4.1296849 223.1875
23.557163 -28.717819 4.2767696 255
23.549822 -28.482452 3.512157 136
23.74168 -28.522963 3.4541621 1
23.61097 -28.678617 3.4757061 128.08333
23.662529 -29.000013 3.6974652 255
23.5336 -28.355293 3.688571 127.5
23.569073 -28.635509 3.9002814 255
23.633018 -28.928787 4.0121861 255
23.512985 -28.346165 4.1296101 255
23.547085 -28.545027 4.3232198 255
23.64299 -28.986881 4.2670126 255
23.589348 -28.778812 4.5353985 255
23.668816 -28.943916 3.5959535 255
23.535656 -28.343569 3.6015613 170
23.585695 -28.613087 3.8141179 236.92857
23.63419 -28.861032 4.0233164 255
23.558868 -28.326651 4.0511856 127.5
23.563042 -28.522789 4.2387638 255
23.657497 -28.983953 4.1885223 238.66666
23.613972 -28.533905 4.4911766 128.21428
23.62307 -28.716326 4.5617704 128.33333
23.571644 -28.488708 3.4507596 128
23.60886 -28.763275 3.5463433 212.66666
23.652763 -28.959003 3.6175222 255
23.513092 -28.372478 3.8554096 255
23.572826 -28.625925 3.954993 237.07143
23.624077 -28.880838 4.0535479 255
23.503887 -28.33144 4.1854496 255
23.537855 -28.474966 4.362812 255
23.616646 -28.88628 4.2930808 230
23.676559 -28.486967 3.473048 1
23.56451 -28.573988 3.6058977 248.08334
23.621178 -28.816341 3.7042058 255
23.542494 -28.48024 4.0369015 255
23.610275 -28.793755 4.0512938 255
23.529207 -28.429886 4.3745451 255
23.580641 -28.69409 4.3717704 229.60001
23.700359 -29.057695 3.5103538 255
23.554073 -28.469036 3.6364219 137
23.643209 -28.582314 3.6907294 128
23.605249 -28.713501 3.7334514 255
23.580345 -28.585705 4.040144 255
23.663511 -28.964161 4.0771103 255
23.65237 -28.454102 4.4907064 10.333333
23.569153 -28.536434 4.2626104 250.60001
23.663574 -28.692329 4.5908957 2
23.633186 -28.795261 4.5024242 128
23.675243 -28.946209 3.5891385 255
23.589478 -28.548637 3.7910733 233.83334
23.654219 -28.881197 4.0534725 255
23.687126 -29.059826 4.1294694 255
23.567009 -28.478512 4.1245337 255
23.635994 -28.809072 4.2710266 255
23.671139 -28.978638 4.346314 255
23.589569 -28.368 4.4488916 182.42857
23.637573 -28.626053 4.5688143 128
23.542274 -28.475002 3.5372469 128.25
23.583973 -28.758717 3.6475432 221.16666
23.497894 -28.386665 3.9865103 234
23.548637 -28.657944 4.1014395 255
23.59584 -28.937532 4.0926514 255
23.571888 -28.97076 4.1029825 0
23.480175 -28.324102 4.3308716 255
23.546635 -28.665264 4.3567505 255
23.597492 -28.897455 4.3319821 255
23.497555 -28.29409 4.1161375 9
23.700455 -28.592167 3.4716132 43.25
23.601341 -28.659462 3.6114407 143
23.639786 -28.807722 3.6694038 19
23.69751 -28.613949 3.856328 0
23.58379 -28.565849 3.8253083 102
23.644615 -28.84584 3.938098 22
23.572165 -28.514713 4.1848283 234.75
23.617311 -28.727211 4.2753425 118.5
23.656311 -28.919121 4.4885716 16
23.713013 -29.017839 3.4668798 235
23.573212 -28.437561 3.4906337 255
23.617207 -28.642431 3.7006516 255
23.671684 -28.88406 3.9300029 255
23.603207 -28.557173 4.0499053 255
23.596909 -28.55271 4.0475507 255
23.652878 -28.802828 4.1567745 255
23.708759 -29.058796 4.2685957 255
23.633804 -28.299431 4.4628716 109.8
23.589195 -28.493145 4.2815752 255
23.646484 -28.716217 4.5171885 128
23.601799 -28.893347 3.5593214 145
23.463608 -28.301105 3.592813 255
23.530888 -28.454796 3.7828867 197.75
23.512177 -28.563728 3.9526429 255
23.566376 -28.773891 4.0376439 255
23.570484 -28.833347 4.0608292 255
23.478533 -28.383179 4.1402845 255
23.542572 -28.737415 4.287107 255
23.465427 -28.326836 4.3791041 255
23.5145 -28.584049 4.4901671 255
23.700068 -28.303001 3.6057885 6
23.784693 -28.634111 3.5932372 3.5
23.754354 -28.654264 4.4539733 1
23.730148 -28.63166 3.9555964 55
23.764503 -28.839352 3.9484997 3
23.422611 -28.695267 3.8221078 255
23.496037 -29.116049 3.8097906 255
23.587606 -28.371655 3.932915 92
23.666418 -28.792406 3.9147727 255
23.535759 -28.512817 4.2015862 1
23.463856 -28.324181 3.6325283 255
23.489937 -28.613605 4.2996268 255
23.596348 -28.778669 4.0273676 255
23.507977 -28.259808 4.0940785 255
23.491585 -28.955122 4.5827503 41
23.515709 -28.964565 4.5641608 255
23.58606 -28.86145 3.7275736 4
23.500282 -28.348625 3.824121 255
23.555214 -28.607841 3.7764115 117
23.485489 -28.825993 4.5309696 255
23.543064 -28.802763 4.0246067 255
23.581821 -29.010689 4.1142411 32
23.532391 -28.379881 4.1859174 255
23.510918 -28.975498 4.4952946 255
23.456726 -28.717169 4.5242825 255
23.423313 -28.85928 4.2724094 255
23.401913 -28.362192 4.3500957 109
23.383556 -28.605173 4.3099213 255
23.538879 -29.013689 3.8010504 255
23.433037 -28.501766 3.8847945 255
23.490318 -28.758213 3.8431532 255
23.530998 -28.559488 3.9682302 255
23.569969 -28.811577 3.9208846 255
23.483315 -28.306381 4.0150752 255
23.493511 -28.782337 3.9304512 255
23.438473 -28.526524 3.9722831 255
23.508904 -29.13118 4.4218593 103
23.483116 -28.63237 4.5041661 255
23.527946 -28.886978 4.4645634 255
23.506142 -28.795834 4.0583277 255
23.459396 -28.5415 4.0991263 255
23.476002 -28.66563 4.0414772 255
23.450409 -28.481625 3.9886324 255
23.526352 -28.858276 3.9038012 255
23.56884 -28.861734 3.7093115 255
23.505791 -28.609482 3.7690969 255
23.440773 -28.639297 3.5593534 255
23.537312 -28.924366 4.3063841 255
23.427013 -28.418522 4.4107242 255
23.472675 -28.669909 4.3581805 255
23.581196 -28.795864 3.8644972 255
23.469181 -28.289392 3.9647923 255
23.594646 -28.969013 4.2202029 255
23.544323 -28.471901 4.3346043 255
23.607555 -28.725187 4.2791724 255
23.561069 -28.481972 3.4132838 138
23.564838 -29.015425 4.2897162 149.5
23.472492 -28.512318 4.4011788 255
23.549652 -28.573311 3.6568069 255
23.46949 -28.189373 3.744961 255
23.546024 -28.473129 4.2479334 255
23.599224 -28.728521 4.2062397 255
23.496185 -28.822191 4.0603452 255
23.4468 -28.319981 4.1614175 130
23.447418 -28.789143 4.2975073 255
23.391563 -28.408409 4.3682327 255
23.517017 -28.638243 3.7393863 255
23.568871 -28.944883 4.5468183 255
23.524258 -28.397911 4.0438056 255
23.510921 -28.6661 3.9093478 255
23.564663 -28.918974 3.8464596 255
23.472507 -28.290829 4.0051122 137
23.444183 -28.384779 3.6950257 255
23.491631 -28.636786 3.6310112 255
23.541103 -28.659651 4.3764963 255
23.46442 -28.277988 4.4611311 255
23.592731 -28.815527 3.9032624 255
23.558392 -28.562609 3.9664195 255
23.503277 -28.308748 4.0286713 255
23.508972 -28.233145 3.9669833 255
23.568722 -28.954182 4.2162075 255
23.477272 -28.356895 3.6480689 255
23.539726 -28.61101 3.5852175 255
23.556416 -28.595322 4.4794126 255
23.600872 -28.615587 3.8401737 255
23.536755 -28.359035 3.8925838 255
23.46244 -28.503458 3.7174966 255
23.523094 -28.758268 3.6597102 255
23.556732 -28.572521 4.4801188 255
23.615028 -28.827358 4.4239702 6
23.517586 -28.318611 4.5371065 255
23.564972 -28.650917 4.4780884 214
23.558273 -28.587431 4.0080504 255
23.48439 -28.20727 4.091506 255
23.587433 -29.067221 3.536813 151
23.511436 -28.687012 3.6194828 255
23.455711 -28.433926 3.6744206 255
23.550301 -28.855562 4.3218193 255
23.5056 -28.604328 4.3845549 255
23.564072 -28.82126 3.8974216 255
23.485153 -28.444654 3.9925632 255
23.579033 -28.926071 4.4639187 183
23.546158 -28.601519 3.6594539 255
23.468018 -28.227821 3.757534 255
23.508556 -28.796961 3.9644721 255
23.580379 -28.912018 3.8813007 255
23.489841 -28.537619 3.9762247 255
23.518303 -28.718008 4.0117607 255
23.466515 -28.466928 4.0687561 255
23.569267 -28.969376 3.9547322 255
23.550968 -28.809862 4.3928876 255
23.507099 -28.43428 4.4873209 255
23.592007 -29.048679 3.8060758 255
23.557949 -28.799372 3.8664596 255
23.489277 -28.426428 3.9565012 255
23.536491 -28.854424 3.7170825 255
23.485207 -28.606436 3.7782483 255
23.591682 -29.001501 3.5552912 255
23.484123 -28.516254 3.6662016 255
23.58102 -28.826782 4.3694096 255
23.537975 -28.57793 4.4313073 255
23.532936 -28.816025 4.0399799 255
23.459869 -28.440002 4.1146908 255
23.528679 -28.641104 3.9257634 255
23.480766 -28.264858 4.0068092 255
23.545254 -28.481144 4.3874683 255
23.544849 -28.836819 4.3996906 255
23.509724 -28.456011 4.4534636 255
23.563438 -28.714441 4.033453 255
23.509499 -28.451508 4.0815053 255
23.565041 -28.927067 4.037118 255
23.5159 -28.680534 4.0940113 255
23.566246 -28.761496 4.4069118 255
23.53006 -28.259893 4.5082049 255
23.582695 -28.875843 4.3956714 255
23.538528 -28.500193 4.4583526 255
23.588406 -29.037212 4.0809045 255
23.513538 -28.660419 4.1200213 255
23.573292 -29.075666 4.4899178 5
23.533047 -28.568882 4.5475154 255
23.483269 -28.696079 3.6702271 255
23.550751 -28.942642 3.6299019 255
23.426926 -28.448561 3.7109616 255
23.486553 -28.539146 4.4782834 255
23.53215 -28.661232 3.7335925 255
23.544739 -28.952684 4.5040822 255
23.495819 -28.703703 4.5454569 255
23.49456 -28.432804 4.4653821 255
23.531197 -28.725163 3.5853624 255
23.470505 -28.349237 3.6340017 5
23.53516 -28.734478 3.4921794 255
23.474903 -28.487198 3.5301101 255
23.536541 -28.764408 4.1100945 255
23.592377 -28.981632 3.770308 255
23.520912 -28.608356 3.8271437 255
23.512814 -28.81785 4.2619085 255
23.43124 -28.446419 4.3201599 255
23.585121 -28.860809 3.5888429 255
23.465927 -28.371136 3.6924117 255
23.477421 -28.499573 4.1669226 255
23.504826 -28.613605 4.2171106 255
23.450405 -28.368872 4.2682223 255
23.490227 -28.48777 4.2440262 255
23.438988 -28.24505 4.3019242 255
23.592304 -28.91069 3.5120826 255
23.53825 -28.668125 3.5677924 255
23.570557 -28.881939 3.8617144 255
23.496849 -28.514755 3.9390402 255
23.398857 -28.257313 4.3658485 255
23.541561 -28.770838 3.762414 255
23.464664 -28.404432 3.8349414 255
23.623436 -28.999229 4.0888996 255
23.565857 -28.75588 4.1342659 255
23.527046 -28.508501 4.1804857 255
23.575039 -28.912926 4.3592234 255
23.507595 -28.545126 4.4340668 255
23.455688 -28.49486 3.9051566 255
23.397987 -28.251804 3.949481 255
23.559563 -28.875652 3.616045 255
23.486565 -28.635572 3.6482086 255
23.440041 -28.389355 3.6814575 255
23.571274 -28.863495 4.1269932 255
23.520325 -28.618608 4.1603832 255
23.505806 -28.470064 3.8067431 255
23.634689 -29.071987 4.3555489 255
23.52356 -28.466278 4.4583263 255
23.548553 -28.717632 3.6730955 255
23.503616 -28.476488 3.7173755 255
23.620152 -28.872635 3.7687721 255
23.594261 -28.686249 4.3157983 255
23.521057 -28.32288 4.3634257 255
23.617641 -28.834257 4.2168083 255
23.535526 -28.474455 4.2546396 255
23.541599 -28.218462 4.2826977 255
23.574657 -28.838627 4.1198492 255
23.552265 -28.463398 4.1557007 255
23.570995 -28.919065 3.6731319 255
23.484249 -28.56259 3.7229595 255
23.571075 -28.830261 4.3574266 255
23.48835 -28.47411 4.4042978 255
23.568287 -28.748154 4.2521906 255
23.585712 -28.965492 4.076571 255
23.540394 -28.725565 4.1045852 255
23.490467 -28.48679 4.1325545 255
23.43977 -28.248137 4.1606393 255
23.553513 -28.566574 3.395952 255
23.5881 -28.856598 3.5126209 255
23.478779 -28.39188 3.5997953 255
23.606888 -29.018387 3.8227241 255
23.515556 -28.670818 3.873266 255
23.554989 -29.001623 3.8797207 255
23.46545 -28.653263 3.9231396 255
23.50066 -28.686792 3.8150959 255
23.440739 -28.334959 3.8752003 24
23.64518 -29.004902 3.6781647 255
23.585197 -28.776676 3.7152321 255
23.634754 -29.0783 3.743897 205.5
23.52541 -28.745028 3.7915158 255
23.660412 -28.98275 3.5537658 255
23.568653 -28.645706 3.6081996 255
23.725994 -29.058788 4.3970003 255
23.660465 -28.840212 4.4535275 255
23.609516 -28.617115 4.5109472 255
23.609409 -28.901663 3.9596453 255
23.506031 -28.452293 4.043561 255
23.672955 -28.945419 3.5313315 255
23.548382 -28.507261 3.6238379 255
23.657894 -28.918797 3.4385715 99
23.558475 -28.591091 3.4976134 255
23.50523 -28.368324 3.5376887 255
23.598236 -28.899271 3.8981714 255
23.483879 -28.454617 3.9626532 138
23.588577 -29.007759 3.5599141 255
23.493988 -28.679253 3.6162934 255
23.675251 -29.00033 3.5493832 255
23.552105 -28.564808 3.63484 255
23.677349 -29.076567 3.4492249 148
23.54427 -28.646645 3.5388284 255
23.662449 -29.071659 3.5768149 255
23.592785 -28.857622 3.618355 255
23.663486 -29.030483 4.6215429 63.5
23.603027 -29.048454 3.9388192 255
23.501709 -28.605446 4.0118494 255
23.423935 -28.273458 4.0670195 255
23.555984 -29.078247 3.5506396 255
23.464355 -28.756424 3.61795 255
23.650295 -29.005255 4.1078196 255
23.563175 -28.685293 4.1817188 255
23.519207 -28.466694 4.2319221 255
23.74316 -29.015421 3.9407039 255
23.680393 -28.80232 3.9909348 255
23.612057 -28.236 4.1213984 255
23.584835 -28.883129 3.4994221 255
23.535229 -28.663189 3.5330515 255
23.477444 -28.446178 3.5665665 255
23.756718 -28.935211 3.5101848 255
23.625553 -28.505615 3.573113 255
23.566387 -28.288198 3.6050735 255
23.458443 -28.778433 3.5639687 195.5
23.695057 -29.055313 4.4179382 255
23.582844 -28.736498 4.4504871 255
23.621677 -28.357996 4.4911842 255
23.475533 -28.492601 3.4997952 255
23.462013 -28.258678 3.5112879 11
23.599491 -28.963936 3.7194753 255
23.509731 -28.761292 3.7262301 255
23.657475 -29.029533 3.7856975 255
23.530163 -28.60323 3.7881293 255
23.472889 -28.38728 3.7898698 255
23.598534 -28.599623 4.2274556 255
23.675434 -28.928493 3.4848969 255
23.58366 -28.606237 3.472295 255
23.613274 -28.292997 4.544467 255
23.525261 -28.712786 4.3739395 255
23.568481 -28.458092 4.3879566 255
23.627045 -28.404417 4.5291195 255
23.585281 -28.660982 4.5205927 18
23.688686 -28.853746 4.1177173 255
23.608654 -28.532118 4.132091 255
23.596088 -28.898188 4.4289236 255
23.513577 -28.696497 4.4344559 255
23.581844 -28.432529 4.4480038 255
23.60685 -29.114315 3.7299042 151
23.53994 -28.90711 3.7342682 255
23.401711 -28.25876 3.7509842 6
23.582569 -28.812605 3.433208 255
23.439075 -28.284292 3.4468694 255
23.637554 -28.789312 4.0268626 255
23.566982 -28.463198 4.0383716 255
23.522648 -28.244274 4.04635 255
23.700127 -29.092762 3.854517 255
23.568428 -28.679375 3.8692646 255
23.529228 -28.461334 3.8780212 255
23.456974 -28.743374 4.0531769 255
23.626781 -28.932594 3.7928555 255
23.544201 -28.605572 3.8027785 255
23.472172 -28.286612 3.8129847 255
23.658398 -28.734522 3.6967237 255
23.542919 -28.318247 3.7075031 255
23.631378 -28.613091 4.5233598 17
23.660431 -28.254063 4.5410466 255
23.442417 -28.879333 3.9215429 255
23.690865 -29.06955 3.7646689 255
23.58242 -28.771767 3.7764068 255
23.671432 -28.631386 4.3366323 255
23.616127 -28.310747 4.3369422 255
23.594429 -28.759739 3.5773835 255
23.515003 -28.454136 3.5849853 255
23.611004 -29.090874 3.4085798 255
23.517536 -28.79637 3.4176455 255
23.549088 -28.748795 3.4036307 255
23.584866 -28.698896 3.4232335 255
23.686436 -28.926989 4.6071486 38
23.632557 -28.859009 4.2958055 255
23.576942 -28.661564 4.3038754 255
23.609879 -28.202221 4.3284287 255
23.471573 -28.859755 4.094027 255
23.409775 -28.555195 4.1065059 255
23.595341 -28.814137 3.3878667 255
23.489414 -28.420973 3.4032676 255
23.508533 -28.187687 3.3922267 255
23.43742 -28.679678 3.9686785 255
23.427299 -28.360807 3.9847593 136.5
23.581161 -29.040499 3.3598061 255
23.484066 -28.661867 3.3904085 255
23.607933 -28.497663 4.5401487 255
23.781467 -28.706192 3.4202108 255
23.685413 -28.333815 3.4631538 255
23.507305 -28.909882 3.9605622 255
23.427425 -28.523941 3.9369469 255
23.727737 -29.02051 3.7934718 255
23.631462 -28.649948 3.8049331 255
23.571297 -28.365839 3.8145232 255
23.563108 -28.890064 4.0701337 255
23.496538 -28.605803 4.0798326 255
23.568546 -29.042276 3.3729739 255
23.463779 -28.672634 3.4005013 255
23.533627 -28.822018 4.4497662 6
23.564816 -28.837759 4.2462225 255
23.50642 -28.553492 4.2404575 255
23.630922 -28.769705 3.4783893 255
23.539019 -28.401922 3.4555149 255
23.619951 -28.602499 4.5289822 5
23.58757 -29.009104 4.1672635 255
23.537239 -28.72669 4.1492434 255
23.513805 -28.225082 4.1232195 255
23.717041 -28.421974 4.3979073 13
23.546675 -28.965958 4.1417823 255
23.483454 -28.395531 4.1282773 255
23.73488 -28.985542 3.9218876 255
23.619162 -28.64382 3.9254973 255
23.551382 -28.277853 3.9321473 255
23.569492 -29.13324 4.0348611 255
23.461399 -28.695826 4.0258107 255
23.655184 -28.832176 3.6056294 255
23.576498 -28.57806 3.5847468 255
23.510988 -28.317005 3.564754 255
23.645918 -28.886312 4.1447101 255
23.597673 -28.622252 4.1306052 255
23.39673 -28.942198 4.2403359 255
23.392229 -28.652287 4.2377586 255
23.339945 -28.287352 4.2317362 255
23.509108 -29.095739 3.6773503 255
23.435671 -28.84462 3.6575453 255
23.662579 -28.912195 4.0054841 255
23.556519 -28.484646 4.0020957 255
23.548233 -28.198893 4.0038786 255
23.602009 -28.930574 3.749351 255
23.5485 -28.670343 3.742188 255
23.477633 -28.736959 3.6657901 255
23.407087 -28.485874 3.6593351 239
23.661716 -28.491796 3.5281253 255
23.663719 -28.61021 3.4448969 255
23.687916 -28.529255 4.3994918 1.5
23.608322 -29.122774 3.361057 255
23.568928 -28.955492 3.3620203 255
23.477722 -28.626455 3.3635404 255
23.524635 -28.503651 4.3102527 255
23.666822 -28.843916 3.4634962 255
23.604712 -28.597527 3.4488707 255
23.552111 -28.345669 3.4348679 255
23.62578 -28.606531 4.3843637 8
23.695942 -28.7237 3.7049828 255
23.637222 -28.477648 3.7048645 255
23.486856 -28.790993 3.53791 255
23.473063 -28.282743 4.4457474 255
23.51174 -28.813305 4.4588881 3
23.473804 -28.980347 3.7757387 255
23.38187 -28.577192 3.7391043 255
23.734692 -28.854115 3.6257472 255
23.644611 -28.445749 3.6158719 255
23.733952 -28.971939 3.957258 255
23.627056 -28.587965 3.9522078 255
23.553787 -28.273603 3.949374 255
23.504282 -28.795744 3.5249395 255
23.45767 -28.645342 3.5266066 255
23.542559 -28.778025 4.4240398 5
23.540133 -28.342466 4.4379778 255
23.633095 -28.872162 3.5788944 255
23.565914 -28.562456 3.5835435 255
23.655792 -28.343666 4.4791451 255
23.653574 -28.723991 4.2208414 255
23.603373 -28.406794 4.2234011 255
23.643232 -29.111612 4.0058064 255
23.569895 -28.809715 4.0120454 255
23.489012 -28.425331 4.021049 255
23.657419 -28.860834 3.7475071 255
23.573782 -28.481213 3.7514744 255
23.683519 -28.645033 4.105165 255
23.602381 -28.270014 4.1057143 255
23.590906 -28.722933 3.5743279 255
23.642214 -28.727577 4.4187374 3.5
23.620432 -28.31802 4.4152951 173.66667
23.676876 -28.970722 3.6725233 255
23.619907 -28.669558 3.66872 255
23.556484 -28.370852 3.6647699 255
23.664013 -28.280333 4.5103254 255
23.694233 -28.764067 4.5081978 1
23.62491 -29.019604 4.1641407 255
23.575144 -28.802792 4.148592 255
23.527796 -28.337563 4.1221027 255
23.606905 -28.915283 3.9508569 255
23.533068 -28.550329 3.9484522 255
23.673094 -28.973392 3.9938087 255
23.609415 -28.688318 3.9892554 255
23.547522 -28.401211 3.9852109 255
23.714029 -28.983128 3.850574 255
23.649439 -28.781096 3.8275824 255
23.553457 -28.356295 3.7844367 255
23.694666 -28.855906 4.0550456 255
23.600637 -28.437742 4.0427451 255
23.627159 -28.577074 3.5662849 255
23.56461 -28.723024 3.9947586 255
23.505127 -28.444849 3.9864488 255
23.456947 -28.919331 4.0785975 255
23.402645 -28.637039 4.0549459 255
23.701023 -28.797493 3.7379637 255
23.630585 -28.52516 3.716279 255
23.570988 -28.245216 3.6955004 255
23.697922 -28.555206 4.4848318 4
23.666611 -28.886837 3.8813648 255
23.575638 -28.482132 3.8737311 255
23.682293 -28.756725 3.6067173 255
23.648167 -28.625002 3.6065123 255
23.604496 -28.422131 3.6069911 255
23.742825 -28.699324 4.3669624 7
23.729172 -28.32478 4.3757019 85.5
23.6782 -28.586584 4.3643761 8
23.66024 -28.672234 3.6377144 255
23.734951 -28.818251 4.3952327 255
23.634933 -28.58028 4.3868351 255
23.688953 -28.859898 3.8099289 255
23.641304 -28.663847 3.8119092 255
23.604229 -28.460258 3.8150444 255
23.54937 -28.267365 3.8168192 255
23.53957 -28.956659 3.3699937 255
23.44231 -28.547434 3.3791761 255
23.53965 -28.270243 4.1351633 32
23.530487 -28.872541 4.1072655 255
23.440784 -28.484163 4.1186681 255
23.740597 -28.857115 3.4215603 255
23.70554 -28.65892 3.4295077 255
23.649452 -28.473709 3.4360919 255
23.603916 -28.280865 3.4437509 255
23.73727 -28.807791 4.1488209 255
23.66534 -28.486698 4.1632938 255
23.672684 -28.955843 3.8625941 255
23.596249 -28.641264 3.849792 255
23.528774 -28.318913 3.8382969 130
23.577593 -28.783737 3.7750711 255
23.520208 -28.530294 3.7793589 255
23.644285 -28.813013 4.4905629 126.66666
23.605326 -28.401987 4.5042892 110
23.590466 -29.048758 3.9645092 255
23.537407 -28.794807 3.9692862 255
23.472023 -28.474958 3.9758499 255
23.558868 -28.609705 3.6539142 255
23.495239 -28.318081 3.6440237 13
23.674782 -29.005026 4.3670683 216.33333
23.604622 -28.482643 4.3569794 255
23.692364 -28.569715 3.6756606 255
23.779213 -28.770441 4.3696198 251
23.697609 -28.542889 4.3663912 255
23.631863 -28.556219 3.3899326 255
23.604515 -28.432571 3.3903008 255
23.686115 -28.802631 3.3894396 255
23.764584 -29.010569 4.0676856 179.66667
23.670563 -28.722443 4.0673561 255
23.613159 -28.40719 4.0713153 255
23.617168 -28.929108 3.3970008 255
23.542608 -28.628845 3.3830175 255
23.59215 -28.816092 4.0652971 255
23.524689 -28.51111 4.05406 255
23.460451 -28.273026 4.0443354 4
23.567629 -28.710209 3.8446715 255
23.514633 -28.4618 3.8365896 255
23.574203 -28.721277 4.5020957 255
23.518349 -28.475134 4.4953756 255
23.62858 -28.541292 3.6234958 255
23.5769 -28.364277 3.6258647 255
23.676943 -28.777779 4.2623048 255
23.598246 -28.406969 4.2722063 255
23.517889 -28.879818 3.7859685 255
23.435486 -28.589184 3.7669713 129
23.525505 -28.305357 4.4144258 255
23.531591 -28.864502 4.4264197 253.33333
23.469196 -28.629456 4.4130402 255
23.572369 -28.716377 3.4840384 255
23.50506 -28.488295 3.4746237 255
23.605392 -28.899128 3.4895387 255
23.549093 -28.67972 4.1071548 255
23.500898 -28.437494 4.1013727 173
23.624077 -29.037985 4.1164927 255
23.582067 -28.793722 4.1111569 255
23.690374 -28.725023 3.6529036 255
23.628765 -28.49349 3.6549625 255
23.559284 -28.266697 3.6562638 218
23.706537 -28.832371 4.2708602 255
23.631676 -28.472313 4.2784615 255
23.589144 -28.238869 3.9393749 170.66667
23.694214 -28.663399 3.9365287 255
23.717642 -28.55468 4.5582724 2.5
23.611944 -29.005499 3.7970867 255
23.519312 -28.670258 3.7970061 255
23.464468 -28.440048 3.7978683 32
23.627476 -29.034559 4.401618 130
23.519682 -28.642906 4.4041142 255
23.580082 -28.209999 3.3913987 255
23.733789 -28.853424 3.9434268 255
23.657625 -28.510611 3.9679468 255
23.728685 -28.614653 4.5612311 1
23.632183 -28.566738 3.6439302 255
23.574198 -28.344698 3.65365 255
23.72051 -28.896063 3.6297035 255
23.679958 -28.729023 3.6371613 255
23.651382 -28.626989 4.2287512 255
23.596039 -28.336199 4.2450032 255
23.749023 -28.949331 4.2134671 187
23.695938 -28.791729 4.2205362 255
23.50263 -28.368147 3.825351 19
23.634258 -28.922241 3.8036773 255
23.563398 -28.584557 3.8176179 255
23.575644 -28.375572 4.4138288 255
23.66958 -28.959505 4.3825269 149.5
23.575161 -28.639526 4.3955994 255
23.809877 -28.95508 3.8107886 4
23.688864 -28.662342 3.8330019 255
23.616114 -28.330332 3.8617754 255
23.722708 -28.279778 4.4487066 87
23.71224 -28.676815 4.4045529 59
23.680355 -28.791328 3.6271422 130
23.561348 -28.436584 3.6461008 255
23.438438 -28.211182 3.6553328 0
