# .PCD v0.7 - Point Cloud Data file format
VERSION 0.7
FIELDS x y z intensity
SIZE 4 4 4 4
TYPE F F F F
COUNT 1 1 1 1
WIDTH 1326
HEIGHT 1
VIEWPOINT 0 0 0 1 0 0 0
POINTS 1326
DATA ascii
14.163368 -20.581728 -1.1111506 15
13.822645 -20.764149 -0.98033077 14
14.20726 -20.69923 -0.91915101 13
14.137125 -20.586624 -0.76111168 16
13.911611 -20.74048 -0.79272646 22
14.17284 -20.602337 -1.1110815 16
13.827523 -20.749363 -0.98331285 11
14.149076 -20.638744 -0.75913048 16
13.95214 -20.773232 -0.78694773 22
14.146285 -20.592857 -1.1259639 16
13.835537 -20.771963 -0.99106425 17
14.21979 -20.70701 -0.92867249 10
14.149148 -20.59425 -0.77105051 16
13.793525 -20.638126 -1.1396489 16
14.187938 -20.609978 -1.0710521 10
13.798298 -20.646475 -0.96076888 10
14.197216 -20.695431 -0.88731676 17
14.046279 -20.700464 -0.7390998 9
14.177905 -20.610588 -1.097508 15
13.818112 -20.666733 -1.1607162 18
13.779458 -20.584446 -0.99495023 9
14.214422 -20.677151 -0.90933698 10
13.884967 -20.711262 -0.79346293 21
14.089828 -20.658966 -0.75777191 11
14.114376 -20.675398 -1.1486287 25
13.889878 -20.812246 -1.0042514 20
14.169783 -20.622837 -0.78763348 16
13.813853 -20.689213 -0.84882766 12
13.821226 -20.737198 -1.0226859 14
13.770041 -20.577946 -0.86353695 5
14.168786 -20.60652 -0.7902174 16
13.811939 -20.684784 -1.0396763 10
14.209402 -20.733347 -0.96335053 28
14.167977 -20.63344 -0.80048716 16
13.849999 -20.755136 -0.85355806 23
13.817477 -20.709648 -1.0650481 18
14.208759 -20.69873 -0.99372393 13
14.170908 -20.638195 -0.82808095 17
13.855551 -20.779661 -0.87931138 22
14.196187 -20.662905 -1.0361596 12
13.732534 -20.371078 -1.1399502 11
13.752813 -20.526512 -0.94634485 4
14.194795 -20.670002 -0.85979986 16
13.80058 -20.649506 -0.75454009 8
14.193561 -20.685896 -1.0036972 17
13.833721 -20.713207 -1.0676262 20
13.747325 -20.517908 -0.91668451 4
14.162318 -20.696281 -0.83325517 18
14.199357 -20.705696 -1.0059369 17
13.839855 -20.728987 -1.0706532 20
14.189912 -20.625992 -0.83597559 12
13.803207 -20.684151 -0.90378088 10
13.735249 -20.569857 -1.1411231 12
14.207058 -20.682901 -1.0479608 16
13.809246 -20.665329 -0.94412762 9
14.208076 -20.717827 -0.86963302 17
14.187062 -20.607332 -1.1090436 14
13.859817 -20.687099 -1.1594342 23
14.170569 -20.759392 -0.92620981 27
13.937872 -20.822681 -0.9623965 30
13.80321 -20.683956 -0.8160373 12
14.081152 -20.745941 -0.76730478 17
14.150839 -20.568241 -1.0863794 14
13.756247 -20.578192 -0.97613329 9
14.131861 -20.692673 -0.90611678 27
14.037943 -20.635675 -0.74959368 11
13.860933 -20.664968 -0.77828223 22
14.165329 -20.517635 -1.1122637 15
13.787673 -20.676851 -0.98344904 9
14.186337 -20.729118 -0.917795 27
14.146797 -20.5851 -0.75575334 18
13.795064 -20.691341 -0.80561954 16
14.180717 -20.63242 -1.1174958 14
13.850895 -20.696424 -1.163206 20
13.839888 -20.811966 -0.98222315 13
13.795933 -20.657249 -0.82062972 7
14.156731 -20.618084 -0.76838553 17
13.827476 -20.739296 -1.0455298 19
14.190338 -20.727959 -0.99213195 18
13.792431 -20.662243 -0.87967539 9
14.185658 -20.635796 -0.82301331 14
14.148616 -20.599298 -0.96460807 13
13.70909 -20.469206 -0.85969067 5
14.154835 -20.620581 -0.78674757 14
14.171946 -20.562351 -1.1313238 15
13.791921 -20.669113 -0.99586833 9
14.195225 -20.741749 -0.93984044 25
13.805382 -20.691156 -0.8172375 20
14.159101 -20.581429 -0.77771652 18
13.901975 -20.843702 -1.0416818 28
14.089168 -20.789278 -0.85010433 27
13.812302 -20.742397 -0.88125467 16
14.167282 -20.620697 -1.1312559 17
13.789579 -20.670057 -0.98367071 9
14.167496 -20.630796 -0.77534008 17
13.815418 -20.739265 -0.80153942 20
13.747478 -20.54208 -1.1109514 11
14.188261 -20.626011 -1.0563278 9
13.864855 -20.873873 -0.89935541 29
13.794951 -20.678665 -0.73968291 8
14.067245 -20.682091 -0.71102333 9
13.817105 -20.778307 -0.96122545 10
14.176387 -20.644096 -0.74942511 17
13.782917 -20.65778 -0.79543155 7
13.832896 -20.786911 -1.0610257 17
13.801914 -20.689014 -0.89274985 10
14.201993 -20.730644 -0.84395295 17
14.182588 -20.771248 -0.94255239 29
13.859124 -20.833134 -0.97809249 20
13.793156 -20.700569 -0.81813031 11
14.152914 -20.674053 -0.77622849 16
13.816883 -20.748106 -1.0248369 15
14.205116 -20.710445 -0.97899926 13
13.781973 -20.627199 -0.8595432 8
14.178695 -20.652851 -0.80970967 16
14.036966 -20.793327 -1.1376302 25
14.191379 -20.749683 -0.94437122 30
13.929202 -20.81955 -0.973876 31
14.080591 -20.753695 -0.78386474 17
13.857414 -20.850842 -0.99146414 19
13.784847 -20.655102 -0.83339596 9
14.173273 -20.613235 -0.78898096 18
14.174017 -20.733599 -0.95517457 31
13.818383 -20.755892 -0.99361861 14
14.181618 -20.632679 -0.97754949 12.5
13.847342 -20.798893 -0.91708058 30
13.809298 -20.723511 -1.0465888 16
14.196607 -20.68581 -1.0033504 9
13.780505 -20.629379 -0.87752873 9
14.173998 -20.643261 -0.83099824 18
13.818067 -20.704903 -1.0959566 18
14.182291 -20.674706 -0.96464318 16
13.845953 -20.823606 -0.90794033 26
14.15614 -20.71413 -1.0174326 24
13.798367 -20.685823 -0.97333968 9
13.807548 -20.713001 -1.0253987 12
14.172624 -20.683266 -0.90062165 18
13.777868 -20.59523 -0.85760975 9
13.831815 -20.747272 -1.0508981 20
14.192066 -20.728825 -1.0106895 18
13.806728 -20.68914 -0.88144493 9
14.195988 -20.655834 -0.83900356 16
14.048409 -20.730064 -1.1715083 15
13.736588 -20.525208 -1.0348767 5
14.186521 -20.721581 -0.98819256 28
14.132351 -20.599207 -0.82398427 17
13.769883 -20.625469 -0.84897363 10
13.711801 -20.386353 -1.1314244 11
14.149688 -20.682365 -1.0715945 15
13.750752 -20.54314 -0.93913358 5
14.198454 -20.715796 -0.89224583 16
13.85072 -20.695475 -0.74810392 24
14.059658 -20.666767 -0.73326451 9
14.150295 -20.583864 -1.0796988 14
13.79388 -20.640638 -1.0968651 19
14.174975 -20.636036 -0.9002471 16
13.797487 -20.730793 -0.91664648 13
13.946493 -20.5448 -0.74622345 7
13.697868 -20.367041 -1.1118059 12
14.159192 -20.727093 -0.96937817 21
13.805626 -20.7806 -0.90015763 9
14.110773 -20.661982 -0.71691912 13
13.787546 -20.687302 -0.73357362 10
13.822136 -20.885395 -0.92604482 13
14.162313 -20.806921 -1.0641905 17
13.777723 -20.725407 -1.085035 8
13.769133 -20.684792 -0.92103612 9
14.162713 -20.622086 -1.1212949 16
13.796898 -20.653461 -1.1248485 13
13.743834 -20.465916 -0.97532833 6
14.165198 -20.676699 -0.95394385 18
13.715693 -20.477512 -1.1300255 11
13.815588 -20.81926 -0.93778855 9
13.767944 -20.656384 -0.79148239 5
14.157826 -20.687544 -0.78525943 17
14.179645 -20.744011 -1.0012946 20
13.840621 -20.830658 -1.0056655 19
14.16739 -20.652351 -0.85568368 15
13.758479 -20.627174 -0.87107778 9
14.149542 -20.719154 -0.94394737 16
13.753445 -20.687506 -0.95244712 9
13.752819 -20.689405 -0.80356568 9
14.147854 -20.733231 -0.7953065 17
13.77148 -20.657049 -0.90114087 11.5
14.161794 -20.632637 -0.88963848 16.5
14.173801 -20.609707 -1.0365473 17
13.792274 -20.669661 -1.0347363 13
14.144238 -20.570011 -0.90345657 17
13.747299 -20.504726 -0.91355062 10
13.730188 -20.445713 -0.831478 6
13.775392 -20.619194 -0.94796574 9
14.152542 -20.610039 -0.87008536 19
13.941889 -20.426323 -0.69091654 8
14.166245 -20.743624 -1.1698418 14
13.780177 -20.805994 -1.1699193 12
13.757979 -20.719185 -0.98520947 10
14.130773 -20.72402 -1.0392934 16
13.785002 -20.742441 -1.0488851 18
14.171015 -20.738279 -0.91398174 18
14.120672 -20.676418 -0.79970533 19
13.745328 -20.610826 -0.8803553 9
14.137527 -20.55941 -1.1382984 16
13.78404 -20.627691 -1.132461 19
13.720423 -20.431522 -1.0397615 8
14.155331 -20.525387 -0.90490723 16
13.754839 -20.537807 -0.90678978 12
14.182046 -20.625071 -1.0114025 19
14.164246 -20.527843 -1.0749196 12
13.789996 -20.633949 -1.0567795 17
13.72929 -20.421436 -0.97179955 10
14.169521 -20.623081 -0.94860107 26
14.145996 -20.51923 -0.84962893 18
13.766234 -20.547598 -0.84297466 12
13.713541 -20.562723 -1.219022 11
13.757625 -20.764935 -1.0794935 9
13.73223 -20.665546 -0.98320663 10
14.1532 -20.783207 -0.922481 17.5
13.767804 -20.789551 -0.86055762 17
14.114144 -20.672626 -1.0019335 17
13.793522 -20.691019 -0.99614805 21
13.71979 -20.459419 -0.92969233 10
14.168143 -20.638441 -0.85618478 15
13.797689 -20.680735 -0.79710114 25
14.11296 -20.53093 -0.71813655 18
13.793222 -20.600986 -0.70630908 22
13.79733 -20.675667 -1.0562612 20
14.164122 -20.583332 -0.97257793 14.5
14.191185 -20.669075 -0.95933855 23
13.800577 -20.691002 -0.90881979 18
14.13619 -20.509575 -0.78723967 18
13.79434 -20.595222 -0.77733296 24
13.771679 -20.604736 -0.96186525 10
14.156939 -20.67524 -0.94781733 22.5
14.145381 -20.507477 -0.73874521 17
13.770937 -20.569754 -0.77897418 16
14.16357 -20.591528 -0.8212148 16
14.064527 -20.876503 -1.0554113 19
13.69082 -20.474726 -1.1377543 12
13.717731 -20.672022 -0.96123785 10.5
14.11027 -20.876514 -0.88200825 30
14.124783 -20.71067 -0.77596277 15
13.827209 -20.717789 -0.73107284 9
13.730844 -20.708893 -0.82083404 14
14.153548 -20.530542 -1.1821581 13
13.716592 -20.577667 -0.99857372 10
14.164023 -20.774069 -1.0028629 14.5
13.778441 -20.801752 -1.0416101 10
13.717401 -20.574844 -0.91150713 9
14.133314 -20.710148 -0.84520274 16.5
13.760146 -20.7174 -0.80377227 15
13.754233 -20.545727 -1.0657854 11
14.170616 -20.67355 -1.0743058 17
13.758165 -20.532211 -0.90852976 12.333333
14.161544 -20.648447 -0.92237169 16.5
14.14795 -20.534952 -0.82281274 17
13.727432 -20.295029 -1.1584631 11
13.725432 -20.432695 -0.97029889 8
13.758221 -20.544476 -1.0211731 12
14.173649 -20.680744 -0.95400447 22
14.164368 -20.555849 -0.83379865 14.5
13.753027 -20.521591 -0.84006113 10.5
13.746701 -20.559631 -1.108819 12
14.152964 -20.677021 -1.0725892 15
13.714757 -20.444122 -0.99248463 11
13.73862 -20.525721 -0.97551918 12
14.171551 -20.645586 -0.94150233 18
14.140399 -20.542124 -0.82446259 15
13.760381 -20.591871 -0.82205749 12
13.714696 -20.315622 -1.1337625 12
13.726342 -20.525215 -1.0070438 11
14.131927 -20.721182 -0.98653805 22.5
13.721273 -20.506042 -0.912907 11.5
14.147507 -20.618916 -0.82078195 15.5
13.81172 -20.590424 -0.73304093 13
13.744148 -20.597321 -0.79504716 15
13.720296 -20.421694 -0.97952193 10.5
14.190469 -20.60445 -0.94416565 10
14.165442 -20.593256 -0.94809163 14
13.724627 -20.427801 -0.8844533 11
14.137999 -20.50284 -0.79153472 15.333333
13.799675 -20.535589 -0.73721576 16
13.748085 -20.510612 -0.80359423 16
13.739449 -20.296276 -1.1903646 15
14.127141 -20.571245 -1.0831926 16
13.725774 -20.331638 -0.97507858 11.5
14.179294 -20.520088 -0.96179712 13.25
13.784445 -20.482841 -0.82346308 21
14.162528 -20.789968 -1.0560654 10
13.71725 -20.602575 -0.97778803 11.333333
14.161129 -20.732281 -0.95188743 8.25
13.818949 -20.626448 -0.81747621 13
14.137422 -20.64934 -0.85311073 10
14.063074 -20.600502 -0.81778431 10
13.751173 -20.714857 -0.8446365 17
13.715071 -20.345047 -1.1356421 15
14.140224 -20.710173 -1.0242631 11.5
14.168917 -20.731901 -0.94621038 11
14.141632 -20.63516 -0.82474053 4.75
13.722236 -20.619562 -0.83618683 11.5
14.154003 -20.7169 -0.90707469 5
14.052191 -20.533337 -0.74603075 8
13.825391 -20.539757 -0.74814981 11
13.759601 -20.655899 -0.75735962 18
14.182842 -20.587833 -0.96426928 8
14.141223 -20.542292 -0.81448901 3
13.720486 -20.499966 -0.80566871 11
14.149838 -20.616894 -0.88779938 5.5
14.100358 -20.474771 -0.73624265 6
13.770299 -20.515802 -0.73679745 14
13.713116 -20.504339 -0.87196034 9.5
14.137887 -20.611851 -0.87697929 4.5999999
13.992721 -20.42654 -0.76773345 6
13.850757 -20.43257 -0.76825452 11
14.118909 -20.526163 -0.78399056 3.5
13.790697 -20.520029 -0.77250612 11
13.748358 -20.591265 -0.78006548 17
13.707694 -20.29534 -1.1548104 11
14.141517 -20.728388 -0.88103545 4
14.054815 -20.600924 -0.75570804 4
13.788971 -20.624428 -0.75774789 8.333333
13.718191 -20.648884 -0.8265391 9
14.104193 -20.720715 -0.79895359 4.5
14.066639 -20.524822 -0.66841453 4.25
13.784662 -20.481131 -0.68784559 6.666667
13.72027 -20.550352 -0.71811372 7
14.09299 -20.642679 -0.71297097 6.666667
14.05596 -20.625633 -0.75567061 3
13.917833 -20.805906 -0.98068053 22
13.954575 -20.656563 -0.88935858 27
14.08004 -20.712051 -0.89459246 1
13.662858 -20.483347 -1.2915678 0
13.866535 -20.77113 -0.98573148 29
13.798883 -20.740904 -1.1247647 24
14.130706 -20.802126 -1.1122229 16
13.852893 -20.590851 -0.97399074 24
14.160461 -20.742977 -1.0624399 25
13.793163 -20.685612 -1.0543016 22
14.217424 -20.691847 -1.0102587 11
13.765551 -20.476074 -1.0273165 20
14.184592 -20.693577 -0.98449373 22
13.750415 -20.451092 -0.99379015 18
13.999749 -20.835663 -1.2364547 14
14.087231 -20.824587 -0.99721181 22
13.708534 -20.601929 -1.0175443 19
14.038767 -20.725807 -1.1681004 22
14.13994 -20.694717 -0.93946588 25
13.767449 -20.471207 -0.94408441 14
14.187767 -20.719004 -0.97072864 18
13.741577 -20.498625 -0.97331059 19
13.748836 -20.489353 -1.2295154 9
13.97989 -20.829847 -1.1983969 22
14.064424 -20.808559 -0.97988439 26
14.059961 -20.781704 -1.2064701 16
13.79287 -20.727627 -1.196027 20
14.154023 -20.762085 -0.99709725 12
13.751696 -20.60984 -0.98672825 18
13.856874 -20.625631 -1.2550033 23
13.815336 -20.529877 -1.0456178 18
14.090027 -20.775227 -1.0882177 21
13.750851 -20.612789 -1.0843009 13
14.145549 -20.739561 -0.88929868 10
13.757371 -20.621628 -0.87889123 19
14.126073 -20.784475 -1.1188129 18
13.727609 -20.582756 -1.1019174 9
14.107021 -20.770542 -0.91815716 14
13.762183 -20.666817 -0.89766395 18
13.880468 -20.605257 -1.2615651 28
14.242744 -20.666576 -1.0941775 16
13.78705 -20.420483 -1.0693259 12
14.168365 -20.578434 -0.89665949 12
13.918539 -20.572609 -0.87540722 12
14.114034 -20.747227 -1.1152589 18
13.760403 -20.585052 -1.0971216 12
14.168526 -20.724751 -0.93178481 14
13.795117 -20.691292 -0.90199095 17
14.207043 -20.547197 -1.2644206 9
13.823066 -20.629805 -1.2221557 17
13.78453 -20.503712 -1.0426404 16
14.155402 -20.631741 -0.87884325 13
13.885218 -20.646538 -0.85491258 18
13.86878 -20.582008 -1.226707 21
14.239999 -20.626602 -1.0802153 26
13.803915 -20.391335 -1.0513921 10
14.205356 -20.515526 -0.90185672 12
13.939003 -20.558289 -0.87152827 15
14.105137 -20.644922 -1.0328444 19
13.796203 -20.541225 -1.0147859 14
14.183387 -20.636475 -0.86409622 26
13.782161 -20.480907 -0.84033859 13
14.208166 -20.732956 -1.0653062 16
13.778904 -20.549065 -1.0533265 9
14.192613 -20.653896 -0.89700592 14
13.846627 -20.713699 -0.87112713 24
14.229003 -20.608522 -1.1184881 25
13.770477 -20.407068 -1.1220756 12
14.177191 -20.500586 -0.95493376 14
13.837227 -20.556831 -0.94025147 25
14.164673 -20.597343 -1.1236962 13
13.837244 -20.653824 -1.112923 20
14.195963 -20.66132 -0.950688 19
13.841154 -20.721382 -0.94013286 18
14.188428 -20.619259 -1.1719888 15
13.811829 -20.629383 -1.1760786 12
14.186994 -20.654654 -1.0047853 16
13.774427 -20.499077 -1.0246921 12
13.734915 -20.420923 -1.1725602 12
14.143837 -20.547031 -1.1855026 18
14.155354 -20.475533 -1.0309992 14
13.783812 -20.546638 -1.0002972 22
14.167899 -20.583818 -1.1332268 12
13.799485 -20.680199 -1.0883027 14
14.185044 -20.662556 -0.96479428 16
13.816951 -20.711262 -0.92598367 21
14.080271 -20.77581 -1.0814636 18
13.78855 -20.699974 -1.0787188 14
14.159629 -20.705502 -0.85184717 18.5
13.78035 -20.634933 -0.84321898 17.5
14.145415 -20.627499 -1.0676005 28
13.766134 -20.550932 -1.0647577 10
14.14772 -20.561291 -0.91356051 17
13.774254 -20.580061 -0.90127921 17
14.042948 -20.581156 -1.13191 14
13.714746 -20.490738 -0.98621798 11
14.108734 -20.541092 -0.89190048 24
13.747444 -20.558542 -0.81855142 25
13.853142 -20.696878 -1.1706674 19
14.12807 -20.711752 -1.085269 25
13.887251 -20.770294 -1.002683 35
14.133232 -20.564899 -0.85500288 16
13.786383 -20.618065 -0.8548913 17
14.171213 -20.759308 -1.1252016 16
13.824855 -20.804539 -1.1261703 18
13.782472 -20.677353 -0.97642785 10
14.179636 -20.778027 -1.1031244 16
13.831537 -20.836 -1.1055198 19
13.82876 -20.826706 -0.86251807 13
14.115543 -20.86578 -1.1770567 0
14.170341 -20.754269 -0.86212695 14
13.879285 -20.795441 -0.85917449 1
13.97452 -20.896242 -1.0128074 0
13.796405 -20.722332 -1.2009051 0
13.805398 -20.775879 -1.0323813 1
13.768729 -20.660709 -0.88073313 3
14.159698 -20.617271 -1.1310308 14
13.793439 -20.681589 -1.1283169 17
14.129314 -20.603294 -0.80921626 17
14.192395 -20.701849 -0.96064329 13
13.793721 -20.697046 -0.88504851 16
13.763234 -20.559801 -1.0094807 9
14.079798 -20.701443 -1.1478752 18
13.859221 -20.679893 -1.1536088 16
14.150079 -20.520628 -0.84933406 16
13.763087 -20.56871 -0.84954959 5
14.186722 -20.669006 -0.99294811 20
13.656124 -20.353851 -1.1039385 11
14.109424 -20.563389 -1.0578547 14
13.719679 -20.482548 -0.92383051 10
14.163748 -20.648283 -0.88821185 20
14.126126 -20.506741 -0.7468946 16
13.754437 -20.590084 -0.75282025 17
13.968618 -20.506664 -0.73418134 10
13.936479 -20.510117 -0.84907961 0
13.858487 -20.580263 -0.84339762 9
13.789062 -20.687307 -0.84975302 13
13.828255 -20.644663 -0.60928386 17.666666
13.87044 -20.593037 -0.83469784 5
13.773024 -20.597969 -0.59640938 24
13.897814 -20.540457 -0.86771238 20.333334
13.822806 -20.790144 -0.69012511 8
13.794062 -20.495272 -0.70929575 9
13.66485 -20.670269 -0.71320534 8
13.814365 -20.567669 -1.0852656 3
13.736223 -20.763315 -0.76299912 26
13.903069 -20.782059 -0.65667486 9
13.700706 -20.533634 -0.96615142 17
13.667561 -20.615784 -0.61902386 24
13.712837 -20.751778 -0.77580899 16
13.679062 -20.538948 -0.74523515 16
13.736954 -20.39373 -0.69269717 14
13.726631 -20.573288 -0.92423433 13
13.752281 -20.346622 -0.87894601 15
13.720211 -20.44359 -1.1194599 8
13.711212 -20.479355 -0.72661126 18
13.746716 -20.38974 -0.8146596 5
13.72279 -20.671717 -0.88569832 10
13.65263 -20.507318 -0.79984778 12
13.779057 -20.736702 -0.94066232 9
13.851524 -20.828823 -0.75467789 18
13.781521 -20.70923 -1.018297 9
13.753426 -20.542835 -1.2228305 9
13.654705 -20.527811 -0.88616133 22
13.751064 -20.639015 -1.0164315 12
13.722672 -20.566933 -0.65777338 8
13.669735 -20.472034 -0.80515456 14
13.848854 -20.700174 -0.77714789 10
13.726364 -20.510641 -0.73282778 9
13.83902 -20.719578 -0.68694699 6
13.879879 -20.677231 -0.62504917 5
13.829903 -20.761974 -0.82704312 15
13.753235 -20.554062 -0.79223877 15
13.811756 -20.759583 -0.79738241 14
13.771259 -20.712868 -0.82755888 4
13.829517 -20.74728 -0.84872901 15
13.653561 -20.56633 -0.67610848 4
13.657017 -20.684475 -0.82186931 10
13.783222 -20.63974 -0.93074632 9
13.76503 -20.532249 -0.96350318 25
13.83313 -20.773777 -0.94356847 16
13.720608 -20.602627 -0.88795447 26
13.805244 -20.765221 -0.97979695 13
13.655323 -20.617046 -0.92099148 29
14.016792 -20.571114 -0.65454173 6
13.769337 -20.499344 -1.1430292 3
13.685165 -20.626717 -0.9286629 11
13.777077 -20.742714 -0.75061584 9
13.696499 -20.607315 -0.95702642 9
13.804119 -20.64563 -1.0644333 9
13.77512 -20.764023 -0.84703541 8
13.726772 -20.65369 -0.84419465 10
13.810673 -20.668278 -1.2159528 4
13.797596 -20.753124 -0.78896254 7
13.86409 -20.842037 -0.92678714 5
13.649746 -20.609997 -0.91031337 7
13.683601 -20.642826 -0.94419312 9
13.878254 -20.77095 -0.96525592 6
13.753899 -20.605179 -0.9416191 10
13.872398 -20.771271 -1.0213161 7
13.738289 -20.612415 -0.9970898 11
13.721581 -20.708958 -1.0932977 14
13.681297 -20.489414 -1.0663879 7
13.7742 -20.796871 -0.84031993 12
13.816467 -20.77121 -0.8480562 16
13.763184 -20.563675 -1.1714251 3
13.963303 -20.6166 -1.1379821 12
13.809883 -20.465481 -1.1103132 17
13.784248 -20.549458 -1.0968504 11
13.729225 -20.792416 -1.0855188 8.5
13.757999 -20.485325 -1.0013754 25
13.696186 -20.715912 -1.0407156 25.5
13.859325 -20.725311 -1.0145496 15
13.738216 -20.550583 -1.0068744 28
13.687927 -20.332001 -1.0015973 6
13.793179 -20.84119 -1.0941209 22
13.682629 -20.660122 -1.0832986 28
13.920692 -20.590611 -0.99746656 13
13.864075 -20.663631 -0.89516228 11
13.758827 -20.487473 -0.87551469 11
13.720211 -20.676056 -1.112244 9.5
13.807186 -20.609276 -1.1929919 11
13.820255 -20.712242 -1.0898817 10
13.898643 -20.654701 -0.79974169 7
13.822239 -20.366478 -1.2563844 7.5
13.825489 -20.490715 -0.81575739 11
13.787746 -20.56535 -1.1916747 3
13.875557 -20.729626 -0.88477397 8
13.739326 -20.495674 -0.85021091 8.5
13.847485 -20.803528 -1.0662903 10
13.750214 -20.652275 -1.0478653 12
13.814602 -20.908955 -0.98574638 7
13.875202 -20.825756 -0.85412753 8
13.71328 -20.722244 -0.83382857 11
13.888325 -20.734745 -0.82200003 10
13.765701 -20.604851 -0.79729223 13
13.660046 -20.686485 -0.99219429 14
13.822796 -20.665371 -1.1615177 8.5
13.83432 -20.777752 -0.79544961 4
13.814396 -20.575634 -0.7864002 2
13.847286 -20.718018 -0.78688073 4
13.835426 -20.60104 -0.90839207 13
13.795321 -20.83976 -1.1740663 8
13.928619 -20.682068 -1.2182219 7
13.854488 -20.313705 -1.1839249 4
13.807892 -20.562424 -1.1969035 11
13.761772 -20.760891 -1.0781772 17
13.719742 -20.582767 -1.0647047 14
13.833958 -20.583843 -0.75904632 3.5
13.924171 -20.91914 -1.0958097 5
13.766376 -20.72908 -1.0727069 8.5
13.814812 -20.861866 -0.92571402 11
13.755383 -20.702477 -0.90927839 15
13.701626 -20.538162 -0.89296675 10
14.027916 -20.894806 -0.97885156 6
14.027142 -20.794476 -1.048672 8
13.786701 -20.684383 -1.016742 12
13.891129 -20.660427 -0.82722664 14
13.788261 -20.541058 -0.81341553 13
13.777241 -20.345337 -0.8039732 7
13.922167 -20.80254 -1.1380239 10
13.779139 -20.715679 -1.1256242 12
13.799112 -20.494328 -1.121839 6
14.030518 -20.660671 -1.0058594 8
13.731358 -20.501686 -0.97987652 10.666667
13.819952 -20.871944 -0.75255358 2
13.760389 -20.592014 -1.163264 8
13.842508 -20.664497 -1.1488328 14
13.879587 -20.435669 -1.1287208 2
13.951235 -20.772043 -0.87323558 7
13.765215 -20.636616 -0.83856189 10
13.943132 -20.851316 -1.0064471 12
13.813883 -20.66939 -0.97612596 11.5
13.926727 -20.924702 -1.0349298 12
13.756542 -20.459568 -0.793648 1
13.733189 -20.677378 -0.80695748 10
13.797945 -20.654947 -0.94417846 12.666667
13.784355 -20.773979 -1.0059375 10.5
13.683205 -20.570915 -0.99018371 8
13.954973 -20.82383 -0.76802075 7
13.756439 -20.757229 -1.0358216 11
13.870214 -20.858725 -1.0401375 9
13.724882 -20.692547 -1.0230973 11
14.020693 -20.840881 -0.99029219 8
13.760439 -20.773422 -0.96651423 12.5
13.693186 -20.539467 -0.95311034 9
13.878334 -20.831694 -0.81770897 12
13.773647 -20.63018 -0.80075359 8
13.668339 -20.637192 -1.1117709 5
13.971373 -20.656504 -0.8274008 20
13.845098 -20.369984 -0.79324734 5
13.979681 -20.752274 -0.93969083 11.5
13.808104 -20.509945 -0.90084863 9
13.876156 -20.914623 -0.95438659 11
13.902916 -20.69339 -0.91352427 20.5
13.778927 -20.506395 -0.87332213 22
13.739294 -20.777666 -1.0427195 12
13.651583 -20.564535 -1.0095345 9
13.754049 -20.813646 -0.86257184 8.666667
13.959852 -20.818701 -0.81024563 11
13.742151 -20.714294 -0.76590455 17
13.785305 -20.662817 -1.1316711 21
13.945942 -20.655807 -0.96805251 13
13.879379 -20.517672 -0.94883311 16
13.827305 -20.366451 -0.93029654 13
13.763294 -20.656879 -1.1647189 4
13.797579 -20.648443 -0.72136104 4
13.903929 -20.680305 -0.92416358 11.5
13.774767 -20.500292 -0.90315413 11
13.918482 -20.728415 -0.9237628 8
13.773241 -20.46349 -0.90959501 11
13.862221 -20.663275 -0.74408233 8.5
13.768049 -20.69125 -0.85155368 15
13.721693 -20.53459 -0.85010695 12
14.033817 -20.876225 -0.9497779 5
13.713646 -20.760653 -0.91928416 15
13.661934 -20.609245 -0.90940982 11
13.782837 -20.792877 -0.78162581 7.5
13.769236 -20.793604 -1.0097719 12.333333
13.860544 -20.74881 -1.0794624 12
13.722147 -20.572912 -1.0593656 14
13.749222 -20.663965 -1.16098 5.666667
13.792616 -20.813168 -0.86262643 14
13.696142 -20.600559 -0.85026968 11
13.943619 -20.855085 -1.2287296 3
13.763306 -20.717888 -1.1985306 12
13.85754 -20.770628 -0.8610158 11
13.746029 -20.573895 -0.82667208 13.5
13.859509 -20.582129 -1.0347208 14
13.780121 -20.354656 -1.0139402 11
13.934855 -20.753773 -0.82177842 12
13.795698 -20.580612 -0.80333912 9.5
13.82741 -20.790733 -1.0310264 13
13.732512 -20.479145 -1.012053 4
13.697641 -20.729763 -1.095238 18
13.720621 -20.727438 -0.90049732 20.333334
13.86978 -20.887426 -1.1785303 10
13.750998 -20.791664 -1.1654855 17
13.683218 -20.651735 -1.1553837 14
13.648575 -20.648695 -1.0294292 28
13.940224 -20.796358 -1.0726793 16
13.684204 -20.520657 -1.0262058 14.5
13.721966 -20.741922 -1.2200518 1
13.764915 -20.725365 -1.0694153 24
13.684052 -20.497368 -1.0457084 20
13.890738 -20.776865 -1.1953593 13
13.766523 -20.586855 -1.1725708 14.5
13.937059 -20.797533 -0.81499481 4
13.913202 -20.825796 -0.82092321 6
13.775343 -20.724743 -1.1240802 10
13.833897 -20.859369 -1.082271 9
13.733189 -20.658573 -1.0479053 10.5
13.904627 -20.869331 -1.0976896 7
13.729925 -20.732162 -1.0606203 9.5
13.766468 -20.810575 -0.92174268 11
13.716286 -20.660379 -0.91008306 9
13.913609 -20.815729 -0.83384579 13.5
13.738546 -20.761387 -1.2449766 9
13.701838 -20.495312 -1.2228533 4
13.738869 -20.7062 -1.1801336 12.5
13.764175 -20.386868 -1.1570776 1
13.9459 -20.786518 -0.83777618 16
13.765419 -20.647047 -0.80519772 20.5
13.772861 -20.797319 -0.93015063 25.5
13.705112 -20.725851 -1.2108802 3
13.758108 -20.751921 -1.1656559 11
13.721117 -20.586145 -1.1448438 12
14.029743 -20.823153 -1.0290027 13
13.736332 -20.78071 -0.98575592 24
13.66898 -20.5429 -0.95533609 13
13.720856 -20.742977 -1.0361116 23
13.665771 -20.593355 -1.0176823 23
13.746689 -20.736311 -0.86943972 23
13.698177 -20.581882 -0.84644759 18
13.852953 -20.848129 -0.96084225 15
13.974848 -20.796669 -1.0092274 10
13.741198 -20.704964 -0.96887171 18.5
13.699736 -20.445889 -0.93897116 2
13.824837 -20.793528 -1.0226482 11.5
13.697666 -20.611267 -0.98463762 14
14.103428 -20.768646 -0.9934907 5
13.734612 -20.699619 -0.9302392 12
13.681137 -20.551771 -0.90553427 9
13.826401 -20.834919 -1.0636172 11
13.68782 -20.568367 -1.0072389 14
13.887941 -20.710934 -0.81812012 3
13.819893 -20.833845 -1.1857772 8.333333
13.735081 -20.517582 -1.1443086 5
13.843178 -20.832657 -0.93914294 9
13.716351 -20.650887 -0.90330768 13.5
13.690611 -20.687307 -1.2218559 4
13.964525 -20.825932 -0.8918463 7
13.797541 -20.777788 -0.86223185 12
13.718012 -20.654242 -0.83699572 8
13.776751 -20.613222 -1.187607 6.5
13.88731 -20.847807 -1.0703459 8
13.703453 -20.620655 -1.0255508 11
13.972374 -20.832502 -0.91745281 8
13.716221 -20.668125 -0.86705303 12
13.861471 -20.790236 -1.1418434 9.5
13.703581 -20.636295 -1.10488 14
13.839426 -20.735952 -0.79246056 6
13.70575 -20.625336 -1.1847286 5
13.828329 -20.846357 -0.93163407 13
13.708521 -20.559095 -0.88843358 7
13.725719 -20.664341 -1.0933903 11.5
14.0306 -20.792055 -0.99013609 7
13.694365 -20.595928 -0.92669767 12.5
13.899483 -20.80759 -0.85844505 17
13.736141 -20.65378 -0.82302272 19
13.777939 -20.690832 -1.167672 20
13.723133 -20.541286 -1.1467723 16
13.845001 -20.684017 -0.95342934 12.666667
13.923546 -20.761711 -0.78365242 4
13.741253 -20.686462 -0.91980743 11.333333
13.926989 -20.822519 -1.1454184 9
13.750128 -20.781181 -1.1159689 13
13.690828 -20.63821 -1.0933287 14
13.791111 -20.762445 -1.0838841 11.666667
13.865799 -20.804682 -0.81434131 12
13.749252 -20.711351 -0.78817439 8
13.718403 -20.665812 -0.98294723 14
13.71279 -20.622929 -0.95117533 14
13.907663 -20.755222 -1.0216812 17
13.687677 -20.451088 -0.96675813 13.5
13.862619 -20.729784 -1.1190182 17
13.711119 -20.565834 -1.0856997 25
13.670694 -20.403309 -1.0669128 4
13.89057 -20.564598 -0.85845292 7
13.807978 -20.85466 -1.0961411 14
13.668379 -20.582348 -1.0670807 13
13.827583 -20.905899 -1.1194656 10.5
13.822395 -20.747194 -0.87127483 11.333333
13.904142 -20.72315 -0.86017925 10
13.785101 -20.53413 -0.83033019 14
13.910934 -20.790585 -0.9880929 13.5
13.725208 -20.559521 -0.93707228 14.5
13.775499 -20.61347 -0.86740136 15.5
13.948528 -20.893898 -1.1479467 5
13.812435 -20.621479 -1.0970329 17
13.857389 -20.750864 -1.1070091 12
13.733747 -20.564568 -1.0729696 13
13.719978 -20.624662 -1.0348707 14.5
13.712069 -20.728867 -1.1062549 9
13.665087 -20.692993 -0.95921743 14
13.905529 -20.936346 -0.76658857 3
13.881231 -20.806406 -1.148258 10
13.784956 -20.693769 -1.121433 19
13.730402 -20.544563 -1.0969532 13
13.780384 -20.596682 -0.78698373 8
13.917187 -20.73103 -0.78917682 19
13.828722 -20.797701 -0.95774484 25
13.793753 -20.699862 -1.1291589 22.333334
13.673143 -20.4105 -1.0770878 1
13.874857 -20.768782 -1.1116351 20
13.730299 -20.600229 -1.0690826 24.5
13.874407 -20.749708 -1.1320914 15.5
13.701365 -20.508495 -1.0757931 13
14.029043 -20.808531 -1.1593379 6.5
13.789618 -20.724508 -1.1076478 15
13.724154 -20.586885 -1.0785931 18
13.863939 -20.739885 -0.75924146 13
13.816683 -20.488678 -0.71650445 2
13.665499 -20.673391 -1.20231 3
13.886423 -20.829378 -1.0897435 14
13.696177 -20.537457 -1.0266956 20
13.754829 -20.711239 -0.92650139 23.5
13.687737 -20.474392 -0.88928235 17
14.033373 -20.753052 -0.9770757 12
13.753706 -20.697245 -0.9379226 25
13.684423 -20.458466 -0.91043293 14
13.814859 -20.704998 -1.1703048 15.333333
13.686357 -20.541534 -1.0762893 17.5
13.817257 -20.700495 -0.90065575 22.333334
13.775658 -20.802458 -0.92612398 24
13.703014 -20.568411 -0.89630163 22.5
13.808134 -20.75831 -1.0464395 22
13.698481 -20.554989 -1.018442 17
13.940603 -20.76618 -1.0789114 13
13.766878 -20.717459 -1.0573698 24
13.689241 -20.484734 -1.0357724 14
13.749281 -20.670876 -1.0555068 24
13.960871 -20.769289 -0.85379946 15
13.743589 -20.660723 -0.81742728 24.5
13.868004 -20.701622 -0.75954974 5
13.840565 -20.763172 -0.98282695 20.5
13.674427 -20.509895 -0.94590449 16
13.912027 -20.759939 -0.85074699 14
13.714228 -20.634415 -0.81972492 20
13.821367 -20.737768 -1.1212834 22
13.700449 -20.545685 -1.091534 15.5
13.943363 -20.763866 -0.77971196 10
13.822552 -20.672359 -0.7557776 6
13.811605 -20.63909 -0.80791092 13.666667
13.822729 -20.781269 -1.1537995 7
13.731096 -20.564648 -1.1250095 8.5
13.845354 -20.825991 -1.2461395 3
13.672884 -20.677525 -1.2180486 7
13.750502 -20.824183 -1.1675992 14.666667
13.783232 -20.39867 -1.1395249 2
13.79747 -20.815107 -0.8776288 22
13.693844 -20.608833 -0.84553146 20.5
13.919634 -20.799946 -0.89599955 15
13.734884 -20.762358 -0.86855996 26
13.688627 -20.604572 -0.84836018 25
13.828083 -20.819115 -0.9649179 17
13.723972 -20.710312 -0.94586062 27
13.679619 -20.549139 -0.93008018 25
13.775829 -20.72164 -0.89192331 25
13.699993 -20.487507 -0.86971843 11
13.917433 -20.782089 -0.85711086 13
13.711435 -20.662113 -0.82657993 23
13.724009 -20.655439 -1.0793014 25
13.677019 -20.497375 -1.0619922 24
14.064217 -20.761702 -1.1304162 5.5
13.733761 -20.560539 -1.0537884 17
13.973249 -20.657681 -0.69987667 4
13.898739 -20.726795 -0.93638074 16
13.760944 -20.549328 -0.90616977 25.5
13.827431 -20.621614 -0.88791537 19.333334
13.932005 -20.78928 -1.0716728 9
13.663816 -20.532917 -1.0088438 9
13.825077 -20.893869 -1.0504516 9
13.659748 -20.645535 -1.0090698 15
13.797136 -20.819305 -0.92056131 13
13.700037 -20.608891 -0.89741087 11.5
13.842987 -20.583076 -1.2258881 10
13.780724 -20.341251 -1.2040347 6
13.887964 -20.5977 -1.1013869 13
13.754694 -20.42065 -1.0704182 10
13.875517 -20.600471 -1.1255909 11
13.882292 -20.691826 -0.80181479 4
13.772959 -20.59017 -0.78686404 1
13.876125 -20.807102 -1.1504228 7.333333
13.725266 -20.54496 -1.1211603 8
13.806488 -20.804447 -1.0456613 15
13.690037 -20.609049 -1.0298361 18
13.840694 -20.889683 -1.0212157 9
13.670349 -20.643772 -0.99992299 15
13.923111 -20.90115 -0.83891702 10
13.880981 -20.833179 -0.77428263 10.5
13.697731 -20.697422 -0.75093096 13
13.895245 -20.725554 -1.1291761 15
13.728569 -20.572977 -1.1059117 20
13.781879 -20.830191 -1.0244575 22
13.686871 -20.611195 -1.0186579 15
13.819902 -20.831053 -0.99044371 20.5
13.646181 -20.582222 -0.94435573 4
13.713543 -20.666521 -1.1947291 5.5
13.865995 -20.71014 -1.1439569 3
13.711718 -20.445633 -1.0930817 19
13.755884 -20.662086 -1.1807717 9
13.675268 -20.532412 -1.1627294 12
13.823277 -20.879778 -1.1989273 15
13.725758 -20.664608 -1.1757706 11.5
13.921158 -20.923248 -0.90476847 15
13.69099 -20.721731 -0.86760926 27
13.674417 -20.500561 -1.1072011 22
13.869436 -20.6537 -0.79683435 13.5
13.68609 -20.512985 -0.7697376 13
13.879061 -20.777321 -0.87982154 18.5
13.680548 -20.548035 -0.84932518 15
13.691477 -20.605066 -1.0869279 1
13.843081 -20.907595 -1.0575904 19.5
13.707998 -20.72266 -1.0392286 27
13.650511 -20.570812 -1.0289127 3
13.75016 -20.631138 -0.93284655 21
13.637596 -20.426517 -0.91490841 26
13.767872 -20.49221 -0.82590604 16.666666
13.84078 -20.640392 -1.1503786 3
13.78581 -20.486507 -1.1425389 16
13.841722 -20.598146 -0.77452731 9
13.754152 -20.674799 -1.0783621 23
13.661112 -20.455421 -1.054885 17
13.808222 -20.726572 -1.0013514 21
13.675608 -20.543331 -0.97053671 25
13.715946 -20.578312 -1.216413 11.5
13.848295 -20.695469 -0.82491696 22
13.7232 -20.606567 -0.80450404 21
13.854805 -20.665085 -0.72830319 4
13.69467 -20.571777 -1.1328745 6
13.983585 -20.847603 -0.82385457 6
13.804211 -20.804625 -0.80281985 23
13.697071 -20.699236 -0.78550255 24
13.71559 -20.72591 -0.8380208 25
13.704107 -20.536232 -0.82774353 9
13.812544 -20.755293 -0.88759196 20.5
13.681139 -20.570789 -0.86915505 23
13.771143 -20.643078 -0.84395218 19.333334
13.926489 -20.72613 -1.1434619 12
13.77099 -20.662825 -1.1283433 20
13.986877 -20.724619 -0.89528465 11
13.726181 -20.555099 -0.86637592 13.333333
13.859295 -20.685003 -0.83569956 12
13.728237 -20.40123 -0.81427526 3
14.060297 -20.744398 -0.96638322 8
13.781553 -20.788734 -0.94474912 17
13.701742 -20.560497 -0.93110204 17.5
13.82457 -20.67524 -0.92744112 15
13.647732 -20.43158 -0.91174841 9.5
13.851343 -20.826963 -0.94594276 11
13.716002 -20.647079 -0.9304961 18.5
13.913336 -20.840002 -0.7712419 13
13.767313 -20.768917 -0.75481105 17
13.821884 -20.787699 -1.2023294 3
13.757565 -20.646076 -1.1825626 9
13.87262 -20.73313 -1.1225996 11
13.709034 -20.578033 -1.0953183 21
13.692232 -20.624161 -1.1043589 21
13.732275 -20.709457 -1.1468701 5
13.71699 -20.527439 -1.1333985 5
13.797861 -20.659054 -0.97464466 11
13.944901 -20.67695 -0.81779826 8
13.765121 -20.444128 -0.77931368 10
13.837788 -20.682714 -0.99733996 5
13.738064 -20.575111 -0.98467326 1
13.817669 -20.628443 -0.99953413 19.333334
13.662605 -20.374105 -0.98890686 14
14.006458 -20.881901 -0.91282415 9
13.650986 -20.617517 -0.90297842 17
13.904362 -20.884972 -1.0521708 16
13.719589 -20.760029 -1.0402808 22
13.828627 -20.801277 -0.69077313 17
13.824333 -20.77553 -1.1072181 20
13.699062 -20.597397 -1.0995959 26
13.925259 -20.588669 -1.0311458 15
13.69025 -20.418005 -1.0170114 23
13.826111 -20.903505 -0.92504144 21
13.749737 -20.779663 -0.92922807 26
13.702175 -20.628757 -0.9350698 20
13.855911 -20.76458 -0.81917715 21
13.739342 -20.682186 -0.81751013 26
14.01017 -20.811817 -0.82268953 1
13.697693 -20.528391 -0.81961489 21
13.737856 -20.517042 -0.98776209 22.333334
13.862875 -20.944561 -1.1172453 18
13.680384 -20.638979 -1.0948211 15
13.971949 -20.704884 -1.1518507 9.5
13.766542 -20.619947 -1.1560078 17
13.678501 -20.5151 -1.1622167 8
13.699261 -20.48007 -0.97994846 20.5
14.215884 -20.578875 -1.1508101 3
13.733848 -20.311356 -1.1386203 5
13.73253 -20.504131 -1.1336402 21
13.93058 -20.559361 -1.1740547 19
13.729889 -20.391123 -1.1550604 18.333334
13.811013 -20.579067 -0.8934508 12.5
13.662099 -20.468529 -0.88182551 14
13.835302 -20.668697 -0.86210889 12
13.741869 -20.589794 -0.85081929 16
13.69063 -20.463343 -0.84224576 14
13.783905 -20.718582 -1.1606321 17.5
13.901654 -20.647348 -0.89309603 14.5
13.699428 -20.402985 -0.87424046 19
13.895245 -20.596338 -0.98331141 18
13.633225 -20.645739 -1.0140488 14
13.963997 -20.73427 -0.62151062 12
13.796618 -20.650406 -0.5934726 14
14.039224 -20.503109 -1.1547356 1
13.803615 -20.523127 -1.1256132 3
13.678273 -20.4021 -1.1059313 2
14.008937 -20.76539 -0.93302011 14
13.79436 -20.667274 -0.91050243 17
13.738922 -20.689518 -1.0388279 18
13.657545 -20.415482 -1.0230575 3
13.881723 -20.587008 -1.1045513 18
13.760408 -20.635384 -0.73403472 10.5
14.030191 -20.676819 -1.1137245 2
13.888122 -20.555202 -0.93785298 4
14.112093 -20.505934 -1.1938579 2
13.79805 -20.468294 -1.161361 14
13.881568 -20.72389 -0.93873298 7
13.717372 -20.478645 -0.92863739 6
13.803644 -20.519217 -0.72759306 1
13.86064 -20.522322 -1.1374333 13
13.703484 -20.561424 -1.128422 16
13.9564 -20.760258 -1.0036643 15.5
13.745058 -20.589102 -0.99395293 5
13.869149 -20.786196 -1.2336924 11
13.6846 -20.674994 -1.2111769 6
13.870675 -20.694956 -0.86813617 16
13.75286 -20.583826 -0.85343528 6
13.733294 -20.516331 -0.88139284 9
13.698386 -20.375519 -0.87043321 17
13.960212 -20.848631 -1.1713848 9.666667
13.784019 -20.640917 -1.1544867 17
13.973949 -20.631042 -0.84527707 24
13.805281 -20.612473 -0.83087468 24.5
13.700277 -20.488379 -0.82192969 25
13.903561 -20.678312 -0.91915202 16
13.901692 -20.481199 -0.77807951 1
13.810821 -20.437876 -0.77335215 1
13.876733 -20.573803 -0.77279365 2.666667
13.906412 -20.63143 -0.80330414 1.5
13.840589 -20.691738 -0.92146397 17.333334
14.173966 -20.701818 -0.93157339 14
13.897067 -20.591921 -0.92709494 14.5
13.95247 -20.799755 -1.1906419 6.333333
13.92443 -20.750443 -0.7953586 20
13.79845 -20.679752 -0.78807777 5
13.718145 -20.62598 -0.7835297 12
13.841043 -20.871351 -0.88407546 16.5
14.099797 -20.767292 -0.94728088 10
13.780011 -20.757641 -0.92625618 16.666666
13.698207 -20.509895 -0.92652321 3
13.960091 -20.675732 -1.0403817 22
13.823123 -20.631357 -1.0328786 3
14.082943 -20.691011 -1.1032304 7.333333
13.810915 -20.669886 -1.0212367 23
13.716348 -20.345613 -1.0218956 0
14.122451 -20.754971 -0.92013562 0
13.873172 -20.763922 -0.90090001 24.333334
13.786001 -20.797428 -0.89370883 5
14.107341 -20.532969 -1.0408714 14.5
13.766065 -20.305504 -1.0157926 21
13.884347 -20.573343 -1.0213335 22.5
13.81128 -20.417595 -1.0177853 5
13.896033 -20.345728 -0.94542706 2
14.171762 -20.68507 -0.94412243 18
13.973756 -20.58613 -0.94004166 17
13.645343 -20.349136 -1.1545068 5
13.731366 -20.71224 -0.96953309 17.666666
14.087464 -20.728718 -0.89651084 19.5
13.820988 -20.68317 -0.86526799 19.5
13.997173 -20.467922 -0.82532108 7
14.117095 -20.609049 -0.84195888 23.333334
13.843247 -20.591028 -1.1361244 19
13.823327 -20.636108 -0.79220682 13
13.983158 -20.664343 -0.95060849 12
13.800927 -20.567522 -0.95218301 22
14.054552 -20.734776 -1.0307729 13
13.739408 -20.639286 -1.0273287 12.333333
13.954104 -20.467615 -1.1555603 8.333333
14.014267 -20.709579 -1.0210472 4
13.804954 -20.594358 -1.0158998 12
14.088334 -20.673733 -0.90018094 14.666667
13.795157 -20.462656 -0.88436329 12
14.209107 -20.648445 -1.1407291 6
13.94186 -20.756556 -1.1269141 16.5
13.917076 -20.772507 -1.0688896 22
13.940361 -20.720932 -1.1750103 12.666667
14.058318 -20.828396 -1.1774961 2
14.141758 -20.650398 -0.90564108 12
13.95466 -20.699059 -0.89312482 23.666666
14.167543 -20.730116 -0.92109215 1
14.080012 -20.742174 -0.91657698 23
13.858271 -20.782118 -0.90458834 17.25
13.982945 -20.736032 -0.96889913 18.5
13.815045 -20.753819 -0.95803249 22
14.039072 -20.724958 -0.9266271 23
13.816368 -20.691694 -0.91611665 15
13.867313 -20.754066 -0.91658539 27
14.237677 -20.65975 -1.2304105 7.5
13.994398 -20.674282 -1.2176713 20.5
13.871113 -20.599165 -1.2150124 18.5
14.01235 -20.661177 -0.9349758 19.75
13.911785 -20.732489 -0.84097689 4.5
14.096395 -20.691261 -0.89631689 13.5
13.890734 -20.728601 -0.88518941 22
13.82382 -20.323374 -0.97191191 5
14.135251 -20.619238 -0.96988535 24.333334
14.032951 -20.801569 -0.92100883 23
13.697519 -20.568001 -0.92094994 0
13.866333 -20.842663 -0.91382885 11
14.023134 -20.788206 -0.93005121 23
13.634157 -20.53371 -0.92485225 19
13.90712 -20.804092 -0.92446268 15.5
14.065268 -20.70783 -0.9148097 22
13.864594 -20.601725 -0.91276193 14.5
14.109608 -20.642899 -1.0916314 14.5
13.969637 -20.762028 -0.9868595 16.333334
13.670685 -20.499086 -0.97483963 20
13.868875 -20.842676 -1.0235313 21
14.134627 -20.630409 -1.0934875 17.333334
13.821358 -20.85376 -1.1705668 12.75
13.800167 -20.836884 -0.8409 16
14.038979 -20.715548 -0.9839825 21.25
13.864494 -20.754196 -0.96809882 15
14.115762 -20.850155 -1.1980762 10.166667
13.945888 -20.659828 -1.1903293 10
14.049767 -20.684322 -0.87794071 0
13.995435 -20.668198 -0.87395769 1
13.842226 -20.749496 -1.1161211 15
13.861121 -20.75342 -0.80535412 21
13.87949 -20.848175 -0.97871923 8
13.911921 -20.914459 -1.0155468 16.666666
14.180042 -20.65971 -0.93533355 0
14.046394 -20.703856 -0.92386299 2
13.832302 -20.604912 -0.91061383 9.5
14.024046 -20.708023 -0.98768413 23
13.81283 -20.609814 -0.96699607 10
14.054817 -20.701771 -0.70096457 21.5
13.865156 -20.620016 -0.68226302 23.25
14.031176 -20.773262 -1.1087923 11
13.83589 -20.772045 -1.0939925 21.5
13.657505 -20.605703 -1.0896487 12
13.809713 -20.801819 -0.80500656 27.799999
13.623953 -20.590229 -0.80049688 15
13.958069 -20.779343 -0.96276814 25.25
14.002247 -20.759342 -0.91618043 27
13.87599 -20.707724 -1.0373446 24.799999
13.766363 -20.833496 -0.99441302 14.285714
13.736115 -20.488726 -1.1794913 5.5
13.816769 -20.702412 -1.179854 17.25
14.014812 -20.750366 -0.93469638 25.5
13.809483 -20.717411 -0.91259211 24
13.834454 -20.832005 -0.76439649 19
14.053386 -20.738239 -0.96939856 23
13.834888 -20.755405 -0.93686491 21.666666
13.718523 -20.591864 -0.92356592 19
13.826563 -20.858057 -1.152455 3.4000001
14.052273 -20.669046 -0.9493109 24.857143
13.878356 -20.521313 -0.91275704 20
13.835869 -20.657639 -1.0272136 11.0625
13.864689 -20.843714 -0.93559396 24.5
13.998087 -20.762215 -1.047349 25
13.819588 -20.756809 -1.0175555 21.857143
14.053836 -20.707851 -0.81818783 10
13.885333 -20.736229 -0.79048008 26.666666
13.983566 -20.715866 -0.95236719 25.6
13.843955 -20.627716 -0.92371368 18.5
14.199463 -20.660923 -0.99729383 24
13.814276 -20.513142 -0.91797221 18
13.822693 -20.730228 -1.0941725 10.166667
13.69552 -20.410736 -1.085223 9.25
13.871774 -20.709993 -0.87249285 23.75
13.73712 -20.508427 -0.85442698 20
13.776345 -20.699245 -1.0326807 11.45
14.037251 -20.688751 -1.1427549 15
13.838099 -20.746616 -1.1023384 22
14.061523 -20.741392 -0.91900319 25.5
13.872133 -20.749897 -0.8830387 25.857143
13.902118 -20.73111 -1.0173056 23.111111
14.139816 -20.63089 -0.84728444 12
13.995462 -20.72636 -0.81624496 26.799999
14.238289 -20.645514 -0.98878384 22.5
14.044053 -20.654898 -0.93957114 24.424999
13.955957 -20.55414 -0.91840184 19.5
13.858444 -20.78479 -1.1151359 19
13.692431 -20.348141 -1.1084589 9.5
13.953589 -20.721546 -0.81795102 18.25
13.755928 -20.800831 -0.88720995 26
13.684145 -20.621571 -0.88103336 18
13.976106 -20.775967 -1.0724201 24.799999
13.788378 -20.74773 -1.0383903 22.625
13.748013 -20.711184 -0.92885327 20
13.784079 -20.690891 -1.0407658 17.014286
13.966468 -20.701374 -0.76827604 25
14.153405 -20.672926 -1.105956 23.25
13.774915 -20.645481 -1.1352826 12.833333
14.194899 -20.692429 -0.91338098 26
14.140109 -20.701611 -0.90266335 29
13.984919 -20.68121 -0.87428409 26.333334
14.134871 -20.6124 -1.0550954 7
13.934135 -20.739466 -0.91385025 26.678572
13.784411 -20.670647 -0.89175874 20.083332
14.050124 -20.663559 -1.143441 14.5
13.926853 -20.739166 -1.1185387 26
13.773137 -20.685995 -1.0970945 20.75
14.036163 -20.722183 -0.94626141 28
13.90409 -20.751312 -0.92385858 28.25
13.767737 -20.697414 -0.90471733 22.75
14.00984 -20.714985 -1.0319102 22.9
13.838092 -20.745232 -0.90565997 20
14.080073 -20.668545 -0.76395833 14
14.061287 -20.629309 -1.0324249 26.450001
13.973199 -20.608276 -0.92211366 20.200001
14.215406 -20.642885 -0.7851401 25
14.155107 -20.606144 -0.77444315 20.75
14.028428 -20.5783 -0.7494995 23
14.213994 -20.603432 -0.97104639 27
14.082207 -20.74556 -1.0257493 19.1875
13.902668 -20.537777 -1.0136619 13.619047
14.12123 -20.61869 -0.77416879 28.333334
13.993939 -20.564873 -0.75537461 24.5
14.115656 -20.674095 -1.1751683 14
14.112782 -20.701015 -0.9965049 28
13.951617 -20.670523 -1.0730704 23.652779
14.128347 -20.678455 -0.8255223 21
13.984151 -20.680038 -0.81279659 26.714285
14.090855 -20.60313 -1.095346 21.4
13.914533 -20.580296 -1.0791756 20
14.200004 -20.542036 -0.85323209 21.5
13.976748 -20.640326 -0.90964657 24.833334
14.083413 -20.615383 -0.97100616 28.361111
13.894604 -20.568954 -0.96783316 17.916668
14.16995 -20.708775 -1.0771487 20.25
13.928744 -20.636278 -0.99692225 25.700001
14.035454 -20.79085 -1.1454655 14
13.816189 -20.763231 -1.1415342 10.769231
14.087526 -20.620783 -0.8397305 29
13.918632 -20.630329 -0.83363926 26.777779
14.14717 -20.688438 -1.1072195 21.442858
13.941619 -20.726646 -1.1050946 18.5
13.770622 -20.824272 -1.1747977 10.454545
14.07286 -20.6577 -0.8722477 30.4
13.903247 -20.667515 -0.8727653 27.5
13.986262 -20.605354 -1.102313 24.200001
14.161269 -20.583729 -0.94150239 27
13.994564 -20.581673 -0.86638039 23.548611
13.884647 -20.652039 -0.94267601 29.333334
14.102798 -20.425686 -1.1561322 17.666666
13.819331 -20.532743 -1.1631888 19.692308
13.725821 -20.36256 -1.0278733 7
14.098971 -20.541525 -0.91036528 26.5
13.9168 -20.593107 -0.91802019 30.25
13.865128 -20.472549 -1.1819526 17
13.638778 -20.469784 -1.1176876 12.038462
13.98368 -20.635706 -1.0815102 28.870129
13.795615 -20.671484 -1.0127991 16
13.780255 -20.564138 -0.86770034 27
13.966551 -20.604759 -0.85430431 26.200001
14.12049 -20.688194 -1.0932332 15
13.943956 -20.77268 -1.0931125 21.799999
14.137 -20.587116 -0.94636512 17
13.907561 -20.767967 -0.86299872 24.200001
14.141867 -20.760933 -0.9303714 28.333334
14.006646 -20.78064 -0.78074825 23.4
14.139115 -20.595158 -0.99971348 19.233334
13.925347 -20.742683 -1.0088801 18.119047
14.149274 -20.673153 -0.91184026 25
14.129447 -20.621452 -0.7593233 17
13.836351 -20.688242 -0.78731352 21.200001
14.091798 -20.677578 -0.75984997 20.5
13.994227 -20.709267 -0.7686649 30
13.648715 -20.596174 -1.1357048 13.5
14.145674 -20.81366 -1.129421 19.222221
13.660892 -20.316792 -1.158417 11.666667
13.715982 -20.556753 -1.1753278 16.666666
13.95762 -20.651474 -1.1377413 25.333334
13.643338 -20.398083 -1.1986368 11.285714
14.170155 -20.725662 -1.1335922 18.799999
14.250138 -20.621723 -1.1018454 11.333333
14.030435 -20.914385 -1.1029495 12.222222
14.055397 -20.684723 -1.1209749 20
13.852402 -20.832586 -1.1302766 9.25
13.846858 -20.786419 -0.96501982 20
14.059347 -20.775246 -0.94247329 31.111111
13.893167 -20.817183 -0.95783865 27.5
14.106712 -20.713383 -1.0643193 22.792858
13.878064 -20.884109 -1.0711917 18.700001
14.058355 -20.774633 -0.8085435 29
13.90525 -20.76371 -0.82351834 24
13.775647 -20.554157 -0.89633799 9
13.96398 -20.738018 -0.86312675 21.959595
14.146251 -20.684345 -1.1660296 15.25
13.830386 -20.746925 -1.1888299 17.363636
14.088869 -20.797802 -1.0766984 27.9
13.947672 -20.844963 -1.0010201 28.333334
13.836973 -20.734133 -0.84660769 24
14.106956 -20.746014 -0.82290745 19.6
13.943994 -20.783104 -0.83515728 24.799999
13.643787 -20.59127 -1.159596 12.333333
14.131735 -20.740768 -1.036405 23.583334
13.928391 -20.808159 -1.0406926 26.388889
14.107312 -20.719427 -0.78090996 18
13.94924 -20.798649 -0.78401071 23.75
14.12777 -20.415836 -1.1000476 15.333333
13.863743 -20.544361 -1.1048518 18.6
13.96788 -20.646313 -1.0036385 25.409092
13.817085 -20.56208 -0.76094329 23
14.112192 -20.49095 -0.74742639 17
13.989091 -20.600491 -0.74868894 22.142857
14.17178 -20.492279 -1.1015623 14.75
13.787937 -20.738028 -1.1013286 14.1
14.038274 -20.725708 -1.0883069 16
13.996067 -20.758064 -1.0878124 23
13.80652 -20.691504 -0.75608832 23
14.092409 -20.720814 -0.8256312 23.416668
13.948156 -20.769478 -0.8306492 27.5
14.202435 -20.535782 -1.1654631 15
14.030306 -20.836418 -1.0688215 25.708332
13.760377 -20.81806 -1.0912609 9.681818
13.983123 -20.797901 -0.81573677 21.25
14.048809 -20.854231 -0.80751288 26.4
14.150784 -20.595949 -1.0404755 23.666668
13.942534 -20.720169 -1.0507571 24.045454
14.11364 -20.605003 -0.78120792 17
13.93619 -20.695282 -0.79364002 22.142857
13.990829 -20.742054 -0.78601599 30.5
13.870866 -20.667154 -0.98452914 25.142857
13.792123 -20.66465 -0.90558672 23
14.026551 -20.651691 -0.97209668 30.361111
14.140956 -20.397722 -1.1493336 15.4
13.765755 -20.680084 -1.1523629 17.1
14.039988 -20.658741 -1.1336378 17
13.968205 -20.706562 -1.1348166 25
13.801418 -20.646496 -0.80858326 26
14.083109 -20.664661 -0.87285697 26.958332
13.914266 -20.715488 -0.88210213 30.476189
13.812983 -20.684969 -1.0485431 21
14.031267 -20.698629 -0.9411875 30.583332
13.864433 -20.727627 -0.95470369 27.125
13.740108 -20.448572 -1.1099275 17
14.042938 -20.785122 -0.96246272 28.375
13.867352 -20.793503 -0.98229319 22.666668
14.141365 -20.509529 -1.1458049 16.5
13.886589 -20.733795 -1.1584386 20
14.052892 -20.745125 -1.0502585 26
