# .PCD v0.7 - Point Cloud Data file format
VERSION 0.7
FIELDS x y z intensity
SIZE 4 4 4 4
TYPE F F F F
COUNT 1 1 1 1
WIDTH 523
HEIGHT 1
VIEWPOINT 0 0 0 1 0 0 0
POINTS 523
DATA ascii
2.4521518 -3.2949038 0.67953247 0
2.3812351 -3.2259386 0.42692184 1
2.422437 -3.3020351 0.50914592 1
2.423528 -3.3096533 0.66293091 1
2.3833864 -3.3382382 -0.67715615 0
2.3866317 -3.3470356 -0.59980786 0
2.3775837 -3.3183424 -0.51745498 0
2.399394 -3.3492458 -0.44517273 0
2.4018295 -3.2861128 0.01686139 1
2.4031768 -3.303405 0.12945345 1.5
2.3831258 -3.2042599 0.61306453 1
2.3891788 -3.2888432 1.4150131 2
2.3723719 -3.252341 0.37139869 1
2.3494074 -3.1985476 0.55562466 1
2.4131901 -3.3093672 0.72574085 2
2.3631177 -3.1985681 0.86269099 1
2.4043922 -3.3054662 0.80285722 1
2.3903561 -3.2642188 1.4025292 5
2.3905854 -3.2896814 0.80302638 1
2.3600359 -3.2830398 0.69721401 2
2.3765826 -3.3193462 0.86771274 0
2.3648338 -3.2673867 1.0877162 4
2.3701344 -3.2720644 1.2588618 1
2.3562603 -3.2423046 1.4833138 8
2.3654656 -3.2497437 1.7177751 4
2.3738768 -3.2616811 1.6776935 0
2.3672619 -3.2909203 -0.39228702 2
2.3938026 -3.2904472 1.0963552 5
2.3826866 -3.2161484 0.93322301 2
2.348114 -3.1926231 1.0319213 2
2.4217949 -3.1914139 0.79904532 6
2.4482603 -3.1958981 1.5446882 2
2.4118719 -3.3402328 0.089852206 5
2.4467669 -3.3079624 0.5785135 8
2.3923922 -3.3069363 -0.068470359 6
2.3632069 -3.1926613 0.078696698 5
2.4423656 -3.292448 -0.12606004 3
2.4565001 -3.1852837 -0.50480628 0
2.4137979 -3.1913357 -0.70245379 4
2.4045706 -3.3043361 -0.66872126 2
2.3685198 -3.3134112 -0.4803496 3
2.3949814 -3.2890821 -0.29179698 2
2.3970942 -3.2872696 -0.1009465 3
2.395978 -3.2821145 0.088774852 4
2.3842773 -3.2780786 -0.30668959 2
2.4416275 -3.3424373 -0.85194105 3
2.3894143 -3.3610668 -0.39504999 2.5
2.4175663 -3.352922 -0.12629873 2
2.3804913 -3.2457814 -0.041880071 2
2.395268 -3.2300968 0.13337141 2
2.4462914 -3.1862588 0.66449624 2
2.3814774 -3.368124 0.018502019 2
2.385262 -3.3556156 0.19067088 2
2.4403491 -3.3344169 0.53080618 2
2.4311438 -3.3347778 0.87971509 3
2.4345584 -3.3217068 1.0541308 2
2.3592291 -3.2635531 0.067740008 3
2.4600182 -3.213644 0.55847317 2
2.3954096 -3.2402959 0.82047814 3
2.3577652 -3.2120814 1.0825619 1
2.3974345 -3.3504224 -0.86645323 2
2.3793936 -3.3495874 -0.45005298 2
2.3827066 -3.3424304 -0.28253329 0.5
2.4181736 -3.3332984 -0.1561749 4
2.406951 -3.331259 -0.03005391 2
2.4170461 -3.3278649 0.096741676 2
2.3910837 -3.3448551 -0.17924234 3
2.4051609 -3.3483551 -0.57819796 1.833333
2.375468 -3.3367786 -0.38772824 1.25
2.3809102 -3.3249531 -0.25592923 2.5
2.4374337 -3.1906934 -0.98434901 1
2.4635522 -3.1894403 -0.76879144 3
2.4196744 -3.2397046 -0.94536602 2
2.4256878 -3.2516344 -0.79991007 1.125
2.442873 -3.2407289 -0.5915736 1
2.4392464 -3.2114038 -0.49378663 2
2.453203 -3.2507133 -0.37291256 2.125
2.4334667 -3.2438712 -0.20483539 4.1999998
2.404979 -3.1951406 -0.63893282 1
2.3707681 -3.2651169 0.19271477 1.666667
2.3542287 -3.222137 0.23881383 3.5
2.3672366 -3.2337024 1.5136671 0
2.392087 -3.2168548 1.552232 0
2.3677363 -3.1912727 1.6830775 4
2.381567 -3.2130859 1.4813647 2
2.3435209 -3.2110422 1.493996 1
2.3694127 -3.2472801 1.5206001 1
2.378907 -3.2296143 1.5833809 0
2.3975339 -3.2198968 1.5850804 0
2.3874614 -3.2088077 1.5913956 0
2.404727 -3.208004 1.5152593 0
2.3527298 -3.2131939 1.6056488 0
2.3587317 -3.2080793 1.5480139 0
2.4098597 -3.1922605 1.6260434 0
2.3420291 -3.2096782 1.602469 1.5
2.3657708 -3.208545 1.0673614 1
2.3829856 -3.2076042 1.2017596 0
2.452831 -3.1817181 1.5163339 1
2.3548563 -3.2293165 1.5516858 0
2.4038687 -3.1982465 1.3025088 0
2.3866153 -3.214828 1.323632 0
2.3724623 -3.2149851 1.3148482 0
2.3565774 -3.2306914 1.5763065 0
2.3969727 -3.2041802 1.5808525 0.5
2.3601882 -3.1971791 1.7001944 0
2.3485618 -3.1956174 1.6988335 0
2.3442423 -3.203234 1.6059543 0
2.3467588 -3.2159026 1.5867918 0
2.341156 -3.2044129 1.5770254 0
2.3579075 -3.2009752 1.5738795 0
2.4546318 -3.1862831 1.4229956 3
2.3629532 -3.2794647 -0.61245406 2
2.3678818 -3.2651825 0.4684242 4
2.3907681 -3.2389641 0.79394472 2
2.3739777 -3.1961021 -0.11755332 2
2.4366837 -3.1967392 0.75576693 8
2.4297733 -3.2024841 -0.80465817 4
2.3720665 -3.1913595 -0.90636224 3
2.3723698 -3.1956692 -0.099485829 1
2.388751 -3.1869221 -0.03155886 2
2.3767004 -3.2625451 -0.95252168 3
2.389987 -3.2735839 -0.74572027 2
2.3814049 -3.2674723 -0.33651406 1
2.4111671 -3.247849 0.078200273 2
2.3575592 -3.2590468 -0.42065358 1
2.4486933 -3.2255311 -0.25454736 1
2.3696685 -3.2446904 -0.15739606 1
2.4461765 -3.216917 0.10682665 1
2.4149466 -3.2268608 0.31283766 2.5
2.4360685 -3.208555 0.94524539 1
2.3695469 -3.2684913 -0.50460738 1
2.3773365 -3.2630043 -0.34647065 1
2.4148741 -3.2438285 -0.1503513 1
2.3978772 -3.2527823 0.0057781702 1
2.397047 -3.2372332 0.24163476 1
2.4110422 -3.2309854 0.47774723 0.66666698
2.4569569 -3.2105396 0.63190603 1
2.4353166 -3.2180338 0.71538061 1
2.452683 -3.2076936 0.95914 1
2.4291477 -3.2158096 0.83948135 1
2.3609529 -3.2696602 -0.52163035 1
2.3635843 -3.2601185 -0.33838242 0.66666698
2.3713403 -3.2551558 -0.18675035 1
2.4250891 -3.2374699 -0.066832528 0.5
2.4109879 -3.2341306 0.083273187 0.66666698
2.4088132 -3.2259142 0.47637856 0.5
2.4187224 -3.220602 0.62983149 0
2.3643687 -3.2605677 -0.7476545 1
2.4232769 -3.185308 -0.54422313 1
2.4165061 -3.220243 -0.40658486 1
2.3744211 -3.2242107 -0.77431488 1
2.4510877 -3.1832464 -0.79058951 1
2.3732162 -3.200335 -0.63221151 1
2.4147444 -3.2043369 -0.66153008 1
2.4061563 -3.1932101 -0.83847564 1.333333
2.4289579 -3.2004135 -0.67502332 1
2.4602468 -3.1950088 -0.6019038 1
2.4259124 -3.1879311 -0.54439211 1
2.4305873 -3.1914098 -0.44249958 1
2.4430971 -3.291028 0.71669322 0.75
2.4423213 -3.2707222 0.86918682 1
2.4020154 -3.351999 -0.25080124 0
2.4049423 -3.3140535 0.16822049 0.75
2.4105055 -3.3058441 0.43261158 1
2.4237452 -3.295306 0.66190374 1.666667
2.430366 -3.2880685 0.93378574 1.375
2.3918085 -3.320713 -0.32649115 1.375
2.3792694 -3.2499497 0.016746061 1.5
2.3559525 -3.2691431 1.2810953 0.40000001
2.3539567 -3.2400033 1.3679974 2.666667
2.3490632 -3.2115891 1.431443 0
2.3490067 -3.1902657 0.58125287 6
2.3762703 -3.2075844 -0.35141718 2
2.3827286 -3.3574219 0.6658411 5
2.3921776 -3.2816277 1.3879101 3
2.3789387 -3.2428513 0.67285085 3
2.3546658 -3.2277145 0.43772435 3
2.4128418 -3.3239708 1.0387453 4
2.3638592 -3.2708931 0.53760684 2
2.3685246 -3.2913666 0.69131565 5
2.4093781 -3.3592262 0.57356453 2
2.3386803 -3.1931953 1.5982838 3
2.3846188 -3.3019028 -0.21808541 1
2.4093094 -3.2773438 0.764449 1
2.3548985 -3.2264404 1.6953615 1
2.3831062 -3.3010864 -0.29926729 4
2.3957081 -3.2842674 -0.13708931 3
2.3700504 -3.2088623 0.54080981 4
2.3870792 -3.2406044 0.02850401 1
2.3658981 -3.2001343 1.4755948 1
2.379406 -3.2971535 -1.1588252 4
2.3801422 -3.2581863 -1.2390509 1
2.4343033 -3.2051239 -1.1476957 4
2.4219589 -3.1927605 -1.1604952 5
2.4176273 -3.3192444 0.060567498 2
2.375248 -3.3258209 -0.37904775 3
2.3459053 -3.1909065 0.9918741 2
2.3817463 -3.1982307 0.81565285 2
2.4215889 -3.1909561 1.4898882 1
2.3480721 -3.2201614 0.11835754 5
2.3442612 -3.1923256 0.31766856 1
2.3920174 -3.2377434 0.57942498 7
2.4202137 -3.3298492 0.064987302 5
2.4633961 -3.3011513 0.15452409 6
2.4428005 -3.2251549 -0.68676412 3
2.3911228 -3.2575302 -0.62938619 5
2.3990993 -3.2151718 0.47930205 4.5
2.4514694 -3.2627945 1.44972 1
2.4218483 -3.2543221 0.32442749 3.5
2.3573437 -3.2293663 -0.36116743 7
2.3788471 -3.2555733 -0.61609256 3.5
2.4730968 -3.2655411 0.34262538 4
2.4032993 -3.2864456 -0.32100606 5
2.4167576 -3.3468208 -1.1245818 1
2.3829803 -3.3401489 -1.2414725 8
2.3910751 -3.2572784 0.2085098 3
2.3767548 -3.2019005 -0.13478446 7
2.3738995 -3.196003 -0.12579882 8
2.3908272 -3.2267227 -0.093152761 9
2.4177008 -3.217907 0.11073375 5
2.465538 -3.2552376 -0.1118924 1
2.3834562 -3.2036552 0.79788285 3
2.3505187 -3.2291908 -0.91169137 2
2.43296 -3.199234 -0.085207641 2
2.4387212 -3.1814117 1.6019309 1
2.3936377 -3.1885147 -0.29670548 2
2.4167705 -3.1896706 1.5147219 1.5
2.4601703 -3.2510452 0.16552347 3
2.4351201 -3.2360878 -0.44359237 1
2.3986363 -3.2805748 0.35642308 1
2.4110005 -3.2012901 0.12692177 1
2.3497782 -3.1975365 -0.93568349 2
2.4454899 -3.202961 0.50874293 2
2.4115858 -3.1874504 1.179268 1
2.3884466 -3.2013931 0.60273695 1
2.3747866 -3.2376289 -0.4079946 2
2.3945401 -3.1928253 0.23847833 1.5
2.4242187 -3.1907616 0.88678944 1
2.3914027 -3.1866722 -0.11583465 3
2.3645489 -3.2567062 -0.3476828 3
2.4473195 -3.191658 0.27598205 1
2.4318013 -3.1979828 0.91398871 1
2.4041739 -3.2006531 1.5521847 1
2.386328 -3.1975479 1.3999448 2
2.3634253 -3.2149925 0.82203174 2
2.3782282 -3.1931763 -0.17044348 3.5
2.3721952 -3.1859436 -0.66496313 5
2.3729239 -3.1904831 0.234183 7
2.4073858 -3.2470856 -0.96607918 3
2.4531822 -3.187521 -0.43763679 1
2.4403019 -3.2197151 0.09123902 3.333333
2.4471378 -3.2016201 -0.33750075 6.5
2.4373341 -3.1894608 -0.6038987 4
2.4229231 -3.1847725 -0.069709487 6
2.4342604 -3.1984844 -0.9811039 4
2.437746 -3.187067 -0.95915502 4
2.4224386 -3.1915493 -0.96254158 2
2.4816189 -3.3377533 -1.02627 6
2.3856096 -3.2551785 -0.63651115 6
2.4164209 -3.3392715 -1.1002173 12
2.3982019 -3.201046 -0.59074163 4.333333
2.3495321 -3.2342567 -0.061478671 6.5
2.4450865 -3.2093563 -0.89723933 1
2.4088583 -3.3307972 -0.39732802 6.5
2.4111691 -3.1883812 -0.15719113 4.333333
2.4324379 -3.3057594 -0.76420075 7
2.4543571 -3.3020573 -0.29543692 5
2.3872824 -3.2991085 0.18101448 7
2.4498787 -3.2754498 0.64559358 8
2.3866005 -3.3164921 -0.51365936 6
2.4607458 -3.2712021 -0.076887012 5
2.4301205 -3.2738571 0.37721598 7
2.4534883 -3.2134514 0.82159674 8
2.3683233 -3.265604 1.286275 6.5999999
2.4037228 -3.2378025 -0.44271079 5.333333
2.4224558 -3.2485085 0.00341185 6
2.4281464 -3.2344093 0.44655713 6.666667
2.4166288 -3.2494621 -0.38799208 5
2.3732853 -3.2640686 0.019065451 7
2.4006424 -3.2513847 0.4218927 7
2.3682404 -3.2132244 1.2423249 6
2.4541187 -3.2181759 -1.1243649 13.5
2.4218378 -3.1901684 -0.52528954 3.833333
2.3820934 -3.2668953 -0.75438243 5
2.4413671 -3.2132244 -0.37654191 4
2.433219 -3.2322063 0.01662655 3.5
2.4578657 -3.315115 -0.78177118 1
2.39956 -3.280304 -0.83985001 3
2.430234 -3.2865314 -1.1485469 8
2.4037113 -3.2661409 -0.78335333 3
2.3905935 -3.2497406 -0.45532706 2
2.3870239 -3.3095446 -0.11991981 3
2.3822432 -3.2696333 -1.039221 3.5
2.3968525 -3.2519627 -0.73360533 2.25
2.4327087 -3.2599344 -0.42485997 2.333333
2.4509745 -3.1872683 -0.57356066 0
2.415369 -3.1986427 -0.93588305 2
2.4036789 -3.2927446 -1.0300827 6.333333
2.4056568 -3.2409801 -0.49641967 2.4000001
2.3868647 -3.2999287 -0.2229688 2.5
2.3845234 -3.2448654 -0.7387358 3
2.4506178 -3.2158222 -0.36707148 2
2.3678761 -3.2479916 -0.36415491 3
2.3810444 -3.2505598 -0.95764953 3.666667
2.3952837 -3.2223644 -0.59502822 2
2.4043932 -3.1990499 -0.3516987 7.8000002
2.3985481 -3.2742109 -0.60944438 2.5
2.396512 -3.2501163 -0.26648 1.6
2.356359 -3.2106752 -0.80821222 3.666667
2.3839216 -3.212326 -0.70216769 4
2.390933 -3.1988192 -0.38783807 2
2.4384098 -3.2532244 -1.0498089 2.4000001
2.4545751 -3.2635345 -0.7640447 1.9
2.4429278 -3.2814503 -0.38646203 2
2.4365783 -3.2671733 -0.0069144499 2
2.3958039 -3.2752705 0.28071946 2
2.430449 -3.2642546 0.27953571 2
2.4501514 -3.2707934 -1.0538638 10.1
2.4108119 -3.2170143 -0.68716365 2.011905
2.4245925 -3.2567816 -0.028891411 1.8
2.4316044 -3.2307105 -0.95617455 7
2.4628921 -3.2102847 -0.5031907 0.444444
2.4531627 -3.3338132 -0.49109083 2.083333
2.4040117 -3.2362027 -0.57762045 2.416667
2.432898 -3.2016444 -0.2276668 1.644444
2.4399953 -3.2561064 -1.0246882 5.333333
2.4316874 -3.2493181 -0.76571172 1.414286
2.4548512 -3.2338176 -0.42110458 64.666664
2.4362459 -3.3469467 -0.32655343 2.25
2.4623256 -3.330771 0.01317813 1.95
2.3917255 -3.2692294 -1.0153573 2.333333
2.4146867 -3.2487211 -0.68481833 2.333333
2.4438109 -3.2236276 -0.27277011 1.733333
2.4456654 -3.2097211 0.14170913 2.4000001
2.3483691 -3.2193084 -1.1552479 18.666666
2.4354637 -3.2626026 -1.0819062 8.5878153
2.3924706 -3.1984773 -0.7787168 1.792582
2.4024186 -3.1974492 -0.37443671 5.327539
2.4602818 -3.2001777 -0.23839828 2.5
2.440491 -3.1987126 -0.060584869 2.425
2.4245539 -3.3469777 -0.98960066 4.9444451
2.4516411 -3.3229969 -0.56959933 2.2059519
2.4587653 -3.3181903 -0.1541431 2.170476
2.4678667 -3.3157701 0.096696623 2.4000001
2.4654295 -3.2657495 -0.98269361 9.8978958
2.3853137 -3.2066603 -0.58215696 2.121428
2.3741024 -3.3028274 -1.1333227 27.714285
2.4453819 -3.3033373 -0.8609457 2.2051561
2.4669302 -3.2944303 -0.42178133 5.0111952
2.464746 -3.2826357 -0.17370626 1.867252
2.3938806 -3.2018893 -0.88087225 3.0470321
2.4480064 -3.2333918 -0.36851946 2.8997469
2.4253025 -3.2346594 -0.19580635 2.5147059
2.3492875 -3.1923342 -0.90548223 2.6583819
2.3841991 -3.3491001 -0.82372582 2.4535711
2.4590566 -3.3191056 -0.68080103 2.314635
2.4583621 -3.3120866 -0.3354122 2.7129631
2.4455163 -3.2907243 -1.1295328 11.438753
2.4000289 -3.2622819 -0.71227938 2.2524619
2.4250185 -3.23138 -0.41105035 2.9264121
2.3826141 -3.2256553 -1.0592334 8.438839
2.3432345 -3.2007926 -0.62433767 2.5630159
2.3511028 -3.1888127 -0.36565527 3.3949809
2.4356325 -3.2780194 -0.52007681 1.642857
2.4044588 -3.2681699 -0.30891567 6.2926998
2.4562218 -3.351675 -0.35930336 4.2869749
2.4068849 -3.2027917 -0.64515793 1.25
2.3712273 -3.2512207 0.1915846 3.042738
2.3375163 -3.1975496 1.6061063 1.383333
2.3841128 -3.2324939 1.3007882 0
2.3925517 -3.2048802 1.6095966 3.333333
2.3864312 -3.2394786 1.2587583 2.583333
2.3559427 -3.2347956 1.6055248 2.4000001
2.3880877 -3.2173512 1.2641355 0
2.3469629 -3.2319548 1.7074699 0
2.3432941 -3.2200656 1.3006642 0
2.3444877 -3.2151268 1.3305187 0
2.3606727 -3.2368231 1.5772619 1.733333
2.3674457 -3.204314 1.1109242 1.333333
2.3902168 -3.1917975 1.3540692 0
2.3854911 -3.1946161 1.3559284 0
2.3889172 -3.2009525 1.3578247 0
2.3416114 -3.198061 1.6285794 1.388889
2.3447342 -3.1968155 1.4080921 9
2.3582458 -3.2439194 0.2341482 44
2.3935585 -3.1938229 1.4344578 11.5
2.3706856 -3.1914864 -0.14175367 6
2.3926735 -3.2558517 -0.54256254 9
2.4513741 -3.1985245 0.72990221 12
2.3577003 -3.2612534 1.2548237 3
2.3645496 -3.2872009 0.40354645 6
2.4246101 -3.2863274 0.64631486 5
2.431757 -3.2769966 0.22077495 2
2.4285583 -3.1838264 1.2098298 3
2.3641434 -3.2602959 -0.39933145 7
2.4807873 -3.3454971 0.56228745 5
2.4371471 -3.2744102 -0.13798904 5
2.3882446 -3.2076912 0.81345749 1
2.4575729 -3.2707062 -0.35439432 1
2.4158516 -3.1867142 0.5896107 2
2.418973 -3.2911453 -0.61239892 1
2.4249372 -3.2761116 1.0910733 1
2.4386802 -3.2453918 -0.8166188 1
2.4233708 -3.1983871 0.00459135 1
2.4539413 -3.186573 1.6555699 1.5
2.4100423 -3.2376747 -0.02173477 1
2.4382994 -3.2121124 -1.0516407 1
2.367214 -3.2321243 -0.30271643 2
2.4255221 -3.1997414 0.45746118 2
2.416028 -3.1852798 1.2138178 1
2.3502109 -3.1961136 -0.90703839 3
2.3960674 -3.2022171 -0.33179384 2
2.4583151 -3.1867218 0.4992359 2
2.4374051 -3.2105217 0.70605993 2
2.429467 -3.2470436 -1.1372288 0
2.4368019 -3.2277451 -0.4853963 2
2.4435456 -3.1957626 0.17053357 2
2.4511518 -3.241291 0.57504594 2
2.3611186 -3.2332802 1.2134247 2
2.4143806 -3.2406349 -0.9225086 1.5
2.429553 -3.2196198 -0.35740852 2.5
2.3704028 -3.2026138 -0.52677166 4
2.4420791 -3.2342682 -1.1585113 0
2.4442201 -3.2679577 -0.60101676 4
2.4311666 -3.242363 -0.051124681 4
2.3976126 -3.2467747 -1.1101748 7
2.4607038 -3.2159653 -0.57786071 5
2.431591 -3.2104683 -0.04163754 3
2.3800888 -3.1936016 -0.78736234 5
2.3916321 -3.2176991 -0.94164079 7
2.421875 -3.2006912 -0.41915783 8
2.4513512 -3.1808853 0.10440507 7
2.4425583 -3.193779 -0.51704639 12
2.3839235 -3.1992092 0.12778033 8
2.4410191 -3.1993389 -0.75547111 9
2.3549204 -3.2347031 -0.81974542 9
2.4631567 -3.1932106 -0.31489071 11
2.374752 -3.2200603 -0.31066173 14
2.3978109 -3.2796459 -1.1282345 2
2.4076681 -3.2883072 -0.61718863 3
2.4028816 -3.2650528 -0.10570748 5
2.3734808 -3.1881142 0.40832204 1
2.3979292 -3.2407265 -0.678056 1.5
2.4170132 -3.2349224 -0.16776714 6
2.4256411 -3.2062988 0.34381798 7.5
2.3691397 -3.2085247 1.3754711 6
2.4104595 -3.1937008 -1.0467862 7
2.4235907 -3.2763367 -0.77733982 5
2.4285622 -3.2579899 -0.27019441 8
2.4419136 -3.216465 1.2420224 7.5
2.3668041 -3.2342949 1.7405041 3
2.4093351 -3.1899719 -0.98663098 7
2.3543959 -3.2104416 -0.48565683 9
2.4458923 -3.2180252 -0.36889097 10.5
2.4588461 -3.2039852 0.13316515 10
2.3901567 -3.2037945 -0.94281393 8
2.3840771 -3.2030125 -0.45681864 8
2.4229126 -3.1965942 0.030689649 7
2.4497471 -3.2098236 -0.26386562 6.666667
2.4225597 -3.2189732 0.20055662 4.5
2.4470692 -3.1862106 -0.73522586 8
2.4334545 -3.1930447 -0.27785298 8
2.4146118 -3.1890469 0.17996433 7
2.3594589 -3.2351837 -1.0070078 9
2.464222 -3.2298641 -0.49178916 5.333333
2.4665222 -3.2289219 -0.074550927 6.5
2.4672356 -3.2250557 0.34403819 10
2.4366722 -3.241436 0.75728112 0
2.4241333 -3.1981773 1.5988579 4.666667
2.4553909 -3.2745399 -0.83559614 5.5
2.4636612 -3.2625618 -0.43711028 5.333333
2.4214535 -3.204834 -0.8497529 5
2.3615465 -3.2283077 -0.85207999 1
2.4181557 -3.2194595 -0.49818328 4
2.35396 -3.2361698 -0.50044608 3
2.4290333 -3.1970901 -0.14521024 3.5
2.4163723 -3.1966152 0.20505348 3.5
2.4069157 -3.2014008 0.55767524 4
2.3731871 -3.1966209 -1.0811708 12.5
2.3941517 -3.2007084 -1.022053 5
2.4200048 -3.2458048 1.3891737 2
2.4249182 -3.2163744 1.7066404 2
2.3665133 -3.1862307 -0.98715425 4
2.3631153 -3.1868191 -0.68260264 3
2.3833847 -3.2283916 -0.52054787 3.5
2.4209652 -3.1964512 -0.22648551 3.5
2.4173355 -3.19384 0.64035273 3
2.4048605 -3.2446814 -1.1789715 18
2.4541845 -3.1921759 -0.77938992 2.291667
2.4458199 -3.2220011 0.81200391 1
2.3776407 -3.1988783 -1.0733713 3
2.3618593 -3.205657 -0.81156456 5
2.3931465 -3.1991854 -0.90380239 2.875
2.4374399 -3.2462301 -0.83755946 2.5
2.4051504 -3.2645726 -0.53766477 2.5
2.4143801 -3.2503295 -0.12604238 2
2.4469833 -3.2067537 1.2130965 1.375
2.4446635 -3.3350759 -1.2223169 13
2.3459382 -3.1949201 -1.0540717 1.666667
2.3489809 -3.2009683 -0.80480516 2
2.4513531 -3.178015 -0.077347822 3.603704
2.437542 -3.179863 0.3654387 1.25
2.4442158 -3.1824875 0.17438689 0.66666698
2.4375095 -3.2268162 -0.77583539 2.166667
2.4622893 -3.2126813 0.0048745 2.5857141
2.4440756 -3.2110138 0.41814661 1.083333
2.4516554 -3.197844 0.83915603 1.270833
2.3617802 -3.2088327 1.2283605 1
2.4686208 -3.3014092 -1.1920081 14.894737
2.3728089 -3.2674584 -0.90517122 1.875
2.4319935 -3.2430334 -0.85636252 1.553333
2.3701544 -3.2615619 -0.6238057 2
2.4335432 -3.2406266 -0.46079633 1.15
2.4213467 -3.2358155 -0.072277822 1.113333
2.4287128 -3.2242377 0.35771427 1.736111
2.4241815 -3.2224007 0.63637549 0.5
2.4121995 -3.2439675 -1.1503887 9.59375
2.3908353 -3.3270109 -1.1133614 13.121568
2.4347773 -3.2367291 -0.82105303 1.770975
2.4325969 -3.2358999 -0.42339838 1.269048
2.420141 -3.2305036 -0.036691651 1.219048
2.4329534 -3.2126701 0.38181087 1.238095
2.4283361 -3.2057567 0.66006786 1.25
