# .PCD v0.7 - Point Cloud Data file format
VERSION 0.7
FIELDS x y z intensity
SIZE 4 4 4 4
TYPE F F F F
COUNT 1 1 1 1
WIDTH 362
HEIGHT 1
VIEWPOINT 0 0 0 1 0 0 0
POINTS 362
DATA ascii
2.1709442 -2.7256432 1.5481977 6
2.1431808 -2.823822 1.2751088 26
2.1590004 -2.8260918 0.66653305 17
2.180191 -2.8012352 0.61855739 9
2.1358109 -2.7752838 1.6804197 5
2.1959724 -2.7552414 0.31553096 3
2.2022057 -2.7405319 0.11805224 8
2.1254845 -2.735569 1.0064487 2
2.1546249 -2.7533417 -0.43707991 5
2.1396847 -2.7323723 0.082264602 6
2.1686859 -2.7753868 0.72255433 4
2.1840496 -2.8164291 1.0277894 4
2.2814674 -2.7686243 -0.66411197 0
2.2277284 -2.7827013 -1.160205 20
2.2715247 -2.8239224 -1.2136333 31
2.2112751 -2.7225306 -1.0832566 2
2.2626083 -2.8097064 -0.94272089 2
2.2481074 -2.7423475 -0.74972415 0
2.2613671 -2.744494 -0.54576057 0
2.2602038 -2.7987406 1.2678932 1
2.2620995 -2.8325491 1.233187 0.5
2.2740631 -2.8092988 1.1540604 2
2.2768583 -2.8114951 1.8083545 1
2.2370343 -2.7787507 1.2256927 2
2.2619481 -2.7375169 1.3722525 0.33333299
2.2904484 -2.8205922 1.2274419 0
2.2659664 -2.8263483 1.3871267 0.5
2.2931197 -2.8139539 1.2339945 0
2.2885675 -2.8124838 1.277364 0
2.285265 -2.8284512 1.5191793 0
2.2155371 -2.8239868 1.7257302 0
2.2844176 -2.8093286 1.0366091 0
2.243576 -2.7894733 1.1840786 1
2.2799478 -2.7804017 1.32561 0
2.2734537 -2.7988749 1.4520754 0
2.2668343 -2.7517381 1.5777615 0
2.2890573 -2.7733498 1.1913116 2
2.2682281 -2.8044858 1.7038593 0
2.2926862 -2.8203373 0.56075609 0
2.2913287 -2.8202996 0.71522623 1
2.2766991 -2.8175871 0.9076274 1
2.2712252 -2.809273 1.0656209 1
2.2849135 -2.8053877 1.4899244 1
2.2774279 -2.8034465 1.7537978 1
2.2859626 -2.8285606 1.7553395 0
2.2785845 -2.7953453 1.7457732 1
2.2518988 -2.8264644 1.1966684 0
2.3011231 -2.8111863 1.1995354 0
2.2674444 -2.722214 1.787515 0
2.2812943 -2.8263326 1.7764394 1
2.2861662 -2.8303552 1.079199 0
2.3002043 -2.8159184 1.5226078 1
2.2994213 -2.8168278 1.5434637 0.66666698
2.2881198 -2.7936535 1.2461753 0
2.2822981 -2.7979059 1.265458 0
2.287456 -2.7701283 1.2048973 1
2.284662 -2.8096416 1.1795681 0
2.2462778 -2.8308403 1.8417578 0
2.2700853 -2.7580783 1.3596125 1
2.2736921 -2.7828827 1.7817996 2
2.2992806 -2.8041844 1.7799444 1
2.2684827 -2.8190789 1.7832381 0
2.2718329 -2.8032346 1.3395121 0
2.2734349 -2.8183498 1.3452705 0
2.271208 -2.8012867 1.8276184 2
2.2854381 -2.7999191 1.8350829 0
2.130445 -2.8332016 -0.05158807 0
2.223104 -2.7933052 0.040243082 0
2.1761532 -2.8061664 0.19336838 1
2.1504478 -2.8105392 0.66632497 9
2.1626854 -2.8204994 0.58128393 3
2.109108 -2.7330856 0.26574093 6
2.1378012 -2.8096771 0.83737063 1
2.1752934 -2.7981224 0.68661702 2
2.2748756 -2.7652035 -0.55886143 0
2.2805376 -2.8144922 -1.0268431 1
2.2441382 -2.7095184 -1.0005862 1
2.2525406 -2.7236722 -0.88263136 6
2.2471805 -2.7077537 -0.76639587 1
2.2555032 -2.7138207 -0.59198803 0
2.2733188 -2.7192824 -0.36036479 0.5
2.2697535 -2.7600992 -0.95152414 3
2.2719922 -2.7543063 -0.69239324 1
2.2800689 -2.7640338 -0.79438275 1
2.2798519 -2.7577941 -0.53856599 1
2.2238302 -2.7040074 -1.038165 1
2.2855844 -2.7777965 -0.27355021 0
2.2640133 -2.7175465 -0.084219381 0.5
2.2847466 -2.7944486 -1.0440191 1
2.2817025 -2.7830665 -1.0282053 1
2.2853694 -2.7947636 -0.96558315 1
2.2867305 -2.8191798 0.21324794 1
2.2873266 -2.7763839 0.080685258 1
2.1531479 -2.8147793 0.28347522 1
2.179718 -2.8266087 1.3749251 3
2.1437111 -2.7618027 1.1413164 5
2.1540222 -2.752924 0.65699857 10
2.2542229 -2.8260479 1.6895552 10
2.2246971 -2.7332087 1.8074801 2
2.122654 -2.7640228 -0.36810356 10
2.1228142 -2.7229004 0.66849816 12
2.139843 -2.7508335 0.65167695 14
2.216011 -2.7774525 1.7188709 18
2.128746 -2.8079033 0.62577921 9.5
2.177269 -2.7703934 1.7052431 7
2.1405144 -2.8168964 -0.05090934 10
2.148674 -2.7600193 1.0471332 6
2.1320572 -2.7737656 0.49495733 15
2.1598663 -2.7351418 1.6104792 19
2.1918411 -2.8343811 1.3834791 30
2.1602554 -2.82164 0.61880952 85
2.1933365 -2.8375835 1.139496 44
2.1952629 -2.732935 1.5022218 7
2.1445236 -2.7727432 1.0079477 39
2.138485 -2.7604599 1.5405298 12
2.2066345 -2.8361893 0.73453224 14
2.1800766 -2.733078 1.5426062 5
2.1468964 -2.8422394 1.2707211 8.5
2.1963387 -2.831192 1.5108752 10
2.1219292 -2.7720108 0.90239012 6
2.1774063 -2.7759743 1.7518483 8
2.1452751 -2.7520905 0.70271033 4
2.1390686 -2.8163261 1.148748 5
2.1289444 -2.7949791 1.3384573 5
2.1999397 -2.7776146 1.4251921 3
2.1604881 -2.8026962 -0.17423773 8
2.1812172 -2.7348404 1.6078386 5
2.1727715 -2.7995224 0.86959219 6
2.1870346 -2.7885437 1.7329537 3
2.1335907 -2.7568474 0.65044761 5
2.238102 -2.810791 0.8186639 7
2.1327438 -2.7335052 -0.066715904 7
2.2004089 -2.8091011 -0.11224121 4
2.2361603 -2.7277489 0.28039724 4
2.1516075 -2.8366661 -0.49764931 4
2.2156105 -2.8320427 0.73984516 6
2.1826324 -2.8315544 -0.19954985 7
2.1719933 -2.7403221 1.0515506 5
2.1682549 -2.8131561 0.79396892 7
2.1627274 -2.7898445 0.88112837 2
2.1625824 -2.8311768 0.17415822 5
2.113327 -2.734539 0.34726262 3
2.1227951 -2.7214661 -0.51841879 6
2.1919594 -2.7677879 0.71637535 7.5
2.1069069 -2.7380562 -0.28331751 6
2.2106323 -2.7762566 1.4749252 2
2.2467308 -2.7650604 1.7173973 4
2.2244263 -2.7366638 1.22858 8
2.098423 -2.707489 -0.4321472 5
2.234108 -2.8042946 0.83221567 5
2.1658287 -2.7044792 0.2505132 7
2.228817 -2.8308411 -0.066737771 5
2.2634239 -2.7496452 1.0802006 3
2.1585464 -2.8155632 -0.65984702 2
2.2351227 -2.8348503 1.6100991 3
2.2091866 -2.7313385 0.65348005 6
2.2159424 -2.8125191 1.0695035 3
2.2054615 -2.714859 1.1570051 11
2.1265678 -2.7963066 -0.34922397 5
2.2397995 -2.7713318 1.8071959 4
2.1548061 -2.7392998 0.71285117 6
2.2148228 -2.8122139 1.4275111 3
2.212801 -2.8180161 1.1390936 14
2.1873035 -2.8262596 1.1047287 6
2.1860466 -2.7118378 1.5952706 2
2.1815453 -2.7563629 1.5080624 39
2.2780781 -2.7715912 1.8000219 2
2.2185669 -2.8350334 1.7447424 8
2.2806683 -2.7267609 1.7100837 8
2.2028084 -2.8259163 1.1401509 8
2.1503258 -2.8331337 0.45489633 6
2.1320381 -2.7553139 1.6077887 3
2.2005577 -2.8206825 1.4308408 5
2.1177616 -2.7735214 -0.20450938 7
2.1807709 -2.7490845 0.78486478 5
2.187254 -2.7872849 0.74389267 4
2.1386299 -2.8079987 -0.048043009 5
2.2552471 -2.780838 1.7209535 4
2.2511806 -2.7071877 1.5462528 11
2.2659111 -2.7138748 1.7809237 3
2.1389389 -2.823658 1.3424659 7
2.1321068 -2.7650757 1.0250126 2
2.2723179 -2.8270836 1.4907975 2
2.192812 -2.8357506 1.7046537 2
2.1305237 -2.7600021 1.6581572 6
2.1976032 -2.8317947 1.5254811 4
2.2547302 -2.8081474 1.5235058 4
2.2024536 -2.7686119 1.3435549 6
2.2431507 -2.7142487 1.4831359 3
2.2807178 -2.7176208 1.4890842 4
2.1435165 -2.7520142 1.4309014 1
2.1343021 -2.8038445 0.42917538 4
2.2085133 -2.8275337 1.4307157 4
2.2645855 -2.7391586 1.5466783 4
2.1892586 -2.8216629 1.5618044 4
2.2012806 -2.7333488 1.5162786 3
2.2313671 -2.8309364 1.3562229 3
2.1838169 -2.8197212 1.6374189 5
2.1749344 -2.8231583 1.4498072 3
2.1539707 -2.8023071 1.5575581 4
2.1758423 -2.8175735 1.5585217 4
2.1468639 -2.7853165 1.4726174 2
2.1542969 -2.8193741 1.5252262 3
2.1305294 -2.8122635 1.0456249 3
2.1860294 -2.7831039 1.549316 4
2.222826 -2.7425079 1.7041354 2
2.1695852 -2.813179 1.4285307 3
2.2678947 -2.7522583 1.5563731 8
2.1806083 -2.7944221 1.1488047 1
2.2427986 -2.7864838 1.7064549 3
2.1556921 -2.8422165 1.6620003 2
2.212266 -2.7074089 1.522705 2
2.2623558 -2.8214569 0.69115436 1
2.1109676 -2.7202835 1.4181081 2
2.2844257 -2.8282852 0.13394573 1
2.1849132 -2.8289375 0.2395575 1
2.276195 -2.8000107 1.4202766 3
2.2762094 -2.7997704 1.4498535 3
2.1584334 -2.8206959 0.21819596 0
2.1601191 -2.8204689 0.63759571 0
2.2575307 -2.7973981 -0.77777201 1.8055561
2.2738724 -2.816751 -0.31181771 2.0666671
2.2843075 -2.8010874 0.08496125 2.1904759
2.2858186 -2.7741771 -0.25301278 0
2.1556959 -2.8275781 -1.1090348 15.75
2.1311841 -2.8211112 -0.073537648 1.4041671
2.2945695 -2.7839575 1.4586422 4.6054249
2.2169976 -2.7488403 1.7224202 1.520833
2.2340426 -2.725111 1.5843772 4.650465
2.2648799 -2.7202983 1.4649737 3.817734
2.2639494 -2.8070731 1.5097177 1.47663
2.1799426 -2.7866869 1.7295096 2.8008659
2.3037734 -2.8224878 1.2115145 1.060173
2.3003211 -2.8099203 1.16249 1.111926
2.2684884 -2.8071623 1.275381 1.213333
2.2537045 -2.759877 1.2751237 3.604605
2.2682478 -2.7539692 1.2970341 7.0291009
2.2126698 -2.7564909 1.6564729 2.2082541
2.2849944 -2.7961552 1.2451822 2.3211939
2.1971586 -2.7989056 1.6311834 2.528666
2.2838836 -2.8166091 1.2461076 1.208252
2.1954203 -2.8043242 1.6313405 2.6586339
2.2828596 -2.8165808 1.2260408 2.569545
2.2193837 -2.7883463 1.6211021 2.3148911
2.2809057 -2.7475467 1.3396684 0.25
2.2925966 -2.7921479 1.3621342 0
2.2721152 -2.778903 1.3942482 0.30000001
2.2529993 -2.8147748 1.3665099 0.66666698
2.2877865 -2.737041 1.6799803 1.508333
2.238996 -2.8095946 1.4242166 0.38888901
2.2613666 -2.7252805 1.733472 1.575
2.2424624 -2.7940493 1.415835 0.166667
2.2563682 -2.8194375 1.4190884 0
2.2623382 -2.706913 1.7209988 1.722222
2.1833348 -2.7663763 1.7413124 0.375
2.1949635 -2.7357154 1.7703443 0
2.1782627 -2.719157 1.7646953 0.277778
2.2532692 -2.8114355 1.0561305 1.283838
2.2201142 -2.7095571 1.4533162 5.6179709
2.2925003 -2.7959342 1.1963214 1.75
2.2394145 -2.8166311 1.4715199 1.130536
2.2983513 -2.795958 1.4924595 0.98095202
2.2982473 -2.8151617 0.7637291 0.53666699
2.2535691 -2.8212442 1.1848148 1.137987
2.2757282 -2.7280693 1.2409872 1.322619
2.288635 -2.8215573 1.7575276 1
2.2730603 -2.7745261 1.2687134 2
2.288295 -2.7970757 1.5714136 3.0637879
2.1966681 -2.7533164 1.7664719 2.3841269
2.1776414 -2.759964 1.7758904 5.8703699
2.2477803 -2.8304648 1.5870349 2.4039781
2.2741356 -2.8310339 1.2704462 0.55147099
2.269177 -2.8141468 1.3195187 0.91582602
2.2729316 -2.8230836 1.3751923 0.95348603
2.2970815 -2.7939856 1.3323131 0.84363598
2.2328062 -2.7969635 1.6567543 2.405401
2.2747843 -2.7818086 1.3858174 1.1484849
2.2221363 -2.7959621 1.6748098 1.243434
2.2418275 -2.7503595 1.6421884 2.196629
2.2534437 -2.7950943 1.6361246 1.750237
2.2654629 -2.7762766 1.6226745 1.958796
2.2868454 -2.7486157 1.6017779 2.536624
2.2793381 -2.7587128 1.6176717 3.071013
2.2151167 -2.7049844 1.7971472 2
2.2800465 -2.7637882 1.6154417 2.010196
2.2830987 -2.8097651 1.60021 1.849538
2.3026319 -2.828162 1.7864132 1.4
2.2732372 -2.8104818 1.6018882 1.586643
2.2136607 -2.7170861 1.7797508 0.33333299
2.2745743 -2.8181663 1.57973 1.316825
2.2957287 -2.8130615 1.4330127 1.377133
2.2119255 -2.7182229 1.7269022 12.973684
2.2532763 -2.7121072 1.7212868 3.0357139
2.300653 -2.8165135 1.3461511 1.311529
2.2768779 -2.8148382 1.4231262 1.201961
2.2830262 -2.7818851 1.4916778 0.50223202
2.2874951 -2.8268456 1.4583342 0.33333299
2.2920566 -2.8168612 1.4466802 0.5
2.2776756 -2.8284709 1.4729865 0.44999999
2.258831 -2.8104877 1.4694517 0.5
2.2909629 -2.8119292 1.4695015 0.41666701
2.2872312 -2.8282132 1.6858182 0.5
2.3014059 -2.81953 1.4414823 0.30000001
2.272521 -2.788372 1.4651372 2.901191
2.2977352 -2.8265038 1.4344903 0.555556
2.1663322 -2.8202257 1.0259066 6
2.1575928 -2.8236666 0.50172257 2
2.1501122 -2.7220411 1.4880097 4
2.1342926 -2.7387161 1.0638902 10
2.1152763 -2.7635765 0.24710381 23
2.1636848 -2.7812996 1.4069861 11
2.1778259 -2.8169727 0.9767766 17
2.168499 -2.8248634 0.81395322 25
2.1472435 -2.7110577 1.7201324 6
2.1675301 -2.7798424 1.631392 6
2.1575394 -2.7977753 1.4124627 5
2.178196 -2.8363609 0.74411672 8
2.1653175 -2.8256645 0.74913627 7
2.1483612 -2.7729378 1.1151453 8
2.1452293 -2.824295 0.43425882 6
2.1301422 -2.8110962 0.3899461 8
2.1842232 -2.7984962 1.534855 6
2.1711235 -2.7335815 1.1704841 3
2.1796494 -2.8227806 1.2655357 3
2.1639671 -2.8042336 1.2532675 3
2.1160545 -2.7458267 -0.082642257 4
2.183712 -2.7516289 1.1444867 5
2.1145325 -2.7553101 -0.14437395 6
2.1995506 -2.815197 1.0538044 6
2.1386871 -2.7868614 0.16281807 4
2.1496658 -2.7396584 0.77748567 6
2.1517487 -2.7739716 1.0861974 5
2.2628441 -2.7216835 1.3123016 9
2.155323 -2.7756004 1.1014637 3
2.2017975 -2.729229 0.94944102 2
2.1844826 -2.8090744 -0.020062329 6
2.2353783 -2.8336258 0.44498253 4
2.2317371 -2.8078537 1.3259228 5
2.1436691 -2.8411751 0.24005753 5
2.1179924 -2.7399178 0.50708264 6
2.1591625 -2.7591858 1.1512445 4
2.1786156 -2.7109413 1.225028 4
2.133007 -2.7509918 1.692174 2.5
2.1273174 -2.8093796 0.55934191 3
2.2416086 -2.707756 1.3791412 4
2.1071301 -2.7227974 1.2571238 3
2.1702328 -2.7824097 1.0087657 6
2.2846227 -2.816021 1.7153205 3
2.208889 -2.8286171 0.97282702 4
2.1321197 -2.8013458 1.1600659 2
2.1215918 -2.7562714 0.45323664 3
2.1285079 -2.7472878 0.84172642 4
2.2956188 -2.8266258 1.3536547 4
2.1886604 -2.7833366 0.84347618 2
2.1779122 -2.7788239 1.5550421 3
2.1788058 -2.7057152 1.3571905 3
2.2198892 -2.7563667 1.4044777 4
2.2007589 -2.8330879 0.94165283 2
2.2668953 -2.7322083 -1.1153579 33
2.283371 -2.7922611 -1.1122196 10.333333
2.2650895 -2.8173552 -1.0788395 5.1481481
2.1668398 -2.8121581 0.29230735 1.028571
