# .PCD v0.7 - Point Cloud Data file format
VERSION 0.7
FIELDS x y z intensity
SIZE 4 4 4 4
TYPE F F F F
COUNT 1 1 1 1
WIDTH 1386
HEIGHT 1
VIEWPOINT 0 0 0 1 0 0 0
POINTS 1386
DATA ascii
17.349771 -19.553627 0.095902637 4
17.363251 -19.556599 0.28003061 2
17.310944 -19.54776 0.4693656 4
17.324919 -19.549328 0.65482843 5
17.339165 -19.550287 0.8415314 5
17.294571 -19.632801 1.0203645 255
17.334354 -19.775648 1.1832458 255
17.365568 -19.768715 1.5577363 26
17.330616 -19.692345 2.1468143 27
17.352989 -19.554268 2.3785486 3
17.342747 -19.683651 -0.55093712 3.5
17.366484 -19.677704 -0.27787036 1
17.257616 -19.632347 -0.085136399 0
17.360863 -19.680698 0.090182438 2
17.375294 -19.68187 0.27340913 1
17.373466 -19.672768 0.6422143 2
17.389872 -19.668087 0.82847804 1
17.315086 -19.783772 1.5642267 255
17.271244 -19.584045 1.9883436 255
17.351049 -19.734207 -0.65695459 2
17.357182 -19.738955 -0.47385216 1
17.369667 -19.728077 -0.29231384 1
17.278267 -19.728638 -0.01567683 5
17.353994 -19.741543 0.25475842 2
17.363457 -19.734678 0.43767062 2
17.318098 -19.73402 0.98945677 5
17.262424 -19.738329 1.3611617 255
17.258678 -19.648481 2.3308706 0
17.378847 -19.746769 2.5074089 2
17.353384 -19.609915 -0.90949762 2
17.35318 -19.621014 -0.63562828 2.5
17.356646 -19.618971 -0.36261451 2
17.23357 -19.579437 -0.17899974 0
17.362671 -19.625065 0.36665016 2
17.365801 -19.620832 0.55033666 2
17.346424 -19.834793 1.2625107 255
17.310602 -19.73391 1.4626406 255
17.423553 -19.809795 1.6408777 0
17.355532 -19.829636 1.823328 255
17.363468 -19.798679 -1.0159132 33
17.245762 -19.599586 -0.8495782 9
17.31517 -19.58222 -0.66719985 2
17.242224 -19.588125 -0.4854002 7
17.344982 -19.573946 -0.30166978 0
17.216515 -19.538498 -0.12144122 1
17.31756 -19.588776 0.15368973 3.5
17.329609 -19.588943 0.42803067 2
17.233471 -19.540956 0.79613787 0
17.317017 -19.598587 0.97962505 4
17.291706 -19.790825 1.3231051 255
17.319752 -19.79842 1.5086287 255
17.3207 -19.789604 1.6958382 255
17.343109 -19.810673 1.8799546 0
17.345751 -19.789072 2.0725689 0
17.295166 -19.591068 2.304029 2
17.271557 -19.538599 2.5099361 0
17.27129 -19.533194 2.7111719 0
17.339489 -19.689348 -0.91164744 2
17.335995 -19.693676 -0.72859645 3
17.372902 -19.67485 -0.54564005 1
17.372625 -19.674206 -0.36261231 1
17.245924 -19.626993 -0.18148746 0
17.355103 -19.695446 0.5532397 2
17.266752 -19.633579 0.74005401 0
17.253624 -19.666229 1.1068764 255
17.246881 -19.521812 1.8898065 255
17.307392 -19.664898 2.2556195 1
17.33988 -19.668213 2.4553316 2
17.345465 -19.802769 -0.83081549 3
17.341154 -19.80814 -0.64722645 3
17.321054 -19.792488 -0.37368125 2.5
17.266394 -19.778408 -0.1004089 1
17.355829 -19.809021 0.085324511 3
17.352764 -19.802299 0.26957595 3
17.383747 -19.795639 0.45567352 1
17.376974 -19.802784 0.63854688 1
17.282009 -19.757105 0.82331592 0
17.26676 -19.856134 -0.94662678 7
17.310507 -19.855598 -0.39416024 12
17.384836 -19.834421 0.34652194 1
17.296936 -19.820377 0.90191233 1
17.193905 -19.539459 1.6952301 1
17.178526 -19.575281 1.886371 0
17.278637 -19.830868 -0.1799148 2
17.294291 -19.82122 0.74744344 1
17.203678 -19.541965 1.7382393 2
17.331762 -19.724997 -0.92669868 2
17.37719 -19.708416 -0.56514657 0
17.379574 -19.709919 -0.38290799 0
17.307959 -19.73645 -0.20028226 11
17.252714 -19.700665 -0.018471999 1
17.35228 -19.716663 0.16042624 1
17.355482 -19.714945 0.34200817 2
17.358597 -19.720579 0.52276754 1
17.298229 -19.708193 0.79561985 2.5
17.265995 -19.749142 1.616094 255
17.221884 -19.530306 1.8384323 255
17.322491 -19.715965 2.5713725 1
17.429779 -19.710022 2.7738855 0
17.330402 -19.719193 3.1641355 1
17.318695 -19.651676 3.3888559 0
17.330446 -19.676062 -0.82929486 3
17.376339 -19.659786 -0.65273982 0
17.27984 -19.678753 -0.46853966 12
17.24552 -19.616392 -0.1108802 0
17.359163 -19.652891 -0.29371661 2
17.351053 -19.668575 0.42011642 2
17.299717 -19.662601 0.77857965 3
17.3069 -19.660816 0.95843583 5
17.264721 -19.650278 1.5012225 255
17.299561 -19.604591 3.0205247 0
17.387266 -19.680538 3.1973021 2
17.332499 -19.656956 3.4014411 1
17.402987 -19.678127 3.6012399 1
17.310061 -19.654678 -0.68068624 3
17.314108 -19.655672 -0.50471187 2
17.289217 -19.651844 -0.3268888 8
17.328413 -19.648195 -0.15235569 2
17.223152 -19.575365 0.02538584 0
17.350681 -19.636677 0.54884481 1
17.285187 -19.653343 0.72437114 6
17.239378 -19.596172 0.90432787 0
17.296064 -19.64394 1.0766904 5
17.228939 -19.578491 1.6168717 255
17.268698 -19.706768 1.9540743 255
17.343353 -19.824652 2.2924075 3
17.333633 -19.647253 4.0680609 1
17.411438 -19.657112 4.4877977 1
17.290203 -19.812603 -0.96149921 7
17.38397 -19.791573 -0.62149179 2
17.373713 -19.803009 -0.27686667 2
17.326996 -19.815987 -0.44425082 12
17.276932 -19.752039 -0.097460851 1
17.337376 -19.807098 0.069027081 15
17.350578 -19.802057 0.2392012 6
17.273594 -19.764977 1.2778262 255
17.339794 -19.783855 2.3321326 2
17.327665 -19.753111 2.5219457 1
17.394712 -19.791386 2.695977 3
17.333841 -19.742409 3.0825729 0
17.394941 -19.796429 4.2477441 3
17.35384 -19.749374 4.4746704 0
17.281445 -19.571156 4.7706594 3
17.379045 -19.690519 -0.26345667 0
17.247902 -19.660528 -0.084624603 1
17.260221 -19.659782 0.084704094 1
17.343847 -19.720703 0.24622576 2
17.357809 -19.7099 0.41336027 2
17.339729 -19.70936 0.58313864 3
17.330595 -19.71302 0.91948992 6
17.312366 -19.705153 1.0897735 5
17.248785 -19.603947 1.6183478 255
17.301287 -19.817333 1.410852 255
17.304565 -19.806255 1.9227498 255
17.214661 -19.751324 2.2804751 0
17.299555 -19.64674 2.6631889 0
17.316151 -19.662325 3.0222187 0
17.323675 -19.673298 3.2036495 0
17.335197 -19.6716 3.9678731 0
17.345348 -19.675995 4.1656508 0
17.355204 -19.688101 4.3624997 1
17.420137 -19.730656 4.5511899 1
17.331165 -19.612526 4.8105474 2
17.358503 -19.623051 -0.30648178 1
17.238716 -19.58271 -0.13001913 1
17.308466 -19.645187 0.19110018 8
17.32325 -19.643337 0.3528325 3
17.341215 -19.63718 0.51650971 2
17.303532 -19.63903 0.76407224 5.5
17.309692 -19.830534 1.1451957 255
17.283024 -19.738991 1.5703406 255
17.284092 -19.705187 1.8272917 255
17.304623 -19.826305 2.1330225 255
17.287863 -19.577959 2.5435305 0
17.368425 -19.650488 3.795429 3
17.303375 -19.594185 4.0109105 0
17.368383 -19.622406 4.2972507 0.5
17.311201 -19.664585 4.782887 1
17.341253 -19.621162 5.0190539 1
17.259941 -19.728622 -0.0072660102 2
17.349621 -19.764374 0.14464453 2
17.363426 -19.755245 0.38456085 1.5
17.338621 -19.76874 0.62372595 4
17.226545 -19.627258 1.1309448 255
17.276926 -19.75375 1.4317763 255
17.293552 -19.794685 1.7483803 255
17.292717 -19.797155 2.0765176 255
17.216301 -19.798439 2.2423744 0
17.299356 -19.681549 2.4438288 0
17.317705 -19.701046 2.6951032 0.5
17.307728 -19.706884 2.953963 0
17.316906 -19.726624 3.1237597 0
17.344292 -19.74032 3.479706 1
17.334387 -19.722744 3.6709561 0
17.31745 -19.725798 3.8545656 0
17.347597 -19.792227 4.8052497 1
17.284925 -19.718094 -0.66640478 4.5
17.37166 -19.711586 -0.44068724 1
17.385269 -19.698029 -0.28884941 0
17.305801 -19.734423 0.01963358 16
17.316338 -19.732512 0.17080122 12
17.324585 -19.732588 0.32180315 6
17.30566 -19.701942 0.55244893 2.5
17.353567 -19.725813 0.77737588 3
17.277069 -19.76627 1.2314516 255
17.298035 -19.81115 1.3767745 255
17.304253 -19.809151 1.9986519 255
17.301926 -19.659801 2.6905503 0
17.310867 -19.658506 2.8586655 0
17.312424 -19.678484 3.0222762 0
17.317974 -19.687603 3.192646 0
17.357788 -19.724808 3.6228056 1.5
17.263266 -19.716068 -0.2225472 11
17.322615 -19.714809 -0.076199919 3
17.318628 -19.713091 0.14561495 6.5
17.336611 -19.720982 0.3645117 2
17.275688 -19.696646 0.66137117 3
17.360912 -19.70475 0.80822653 1
17.277491 -19.781532 1.6869407 255
17.289984 -19.810307 1.5320147 255
17.174202 -19.727634 2.3040602 0
17.287069 -19.670198 2.4856441 0
17.301193 -19.670902 2.9727755 0
17.410431 -19.725353 3.2978384 1
17.43026 -19.733925 3.9971716 1
17.341446 -19.715998 3.8142602 1
17.34692 -19.725941 4.1710796 1
17.408018 -19.742626 4.3593946 1
17.383181 -19.742165 4.5449786 1
17.255995 -19.517979 4.8407702 4
17.264744 -19.676842 -0.053171489 2
17.362785 -19.710737 0.086712629 1
17.315948 -19.714382 0.2312955 12
17.24058 -19.590616 1.106318 255
17.315697 -19.845222 1.3536714 255
17.315327 -19.839533 1.9369196 255
17.295177 -19.659958 2.4404991 0
17.299097 -19.63546 2.2937267 0
17.304441 -19.651802 2.600045 0
17.308355 -19.65715 2.7570038 0
17.331707 -19.69471 2.9873943 1
17.320419 -19.673641 3.2407906 0
17.324146 -19.680157 3.4047475 1
17.326569 -19.690224 3.5706773 0
17.410954 -19.7316 3.8254409 1.5
17.385307 -19.744152 4.0816121 2
17.328136 -19.637123 4.6910753 3
17.352905 -19.765034 -0.15903141 2
17.346127 -19.767105 -0.2977846 2
17.301836 -19.779339 -0.018500229 11
17.372778 -19.749901 0.11673079 1
17.306492 -19.772125 0.32319567 8
17.356455 -19.772425 0.52842951 1
17.273033 -19.733612 0.66910303 2
17.317226 -19.766212 0.80369294 5
17.20528 -19.575314 1.3862573 255
17.298704 -19.714762 2.5238824 0
17.280346 -19.744337 2.364104 0
17.305191 -19.712624 2.6770246 0
17.304497 -19.727043 2.8257029 0
17.311901 -19.729584 3.058428 1
17.318211 -19.735153 3.2963383 0
17.359627 -19.788597 3.4424684 2
17.427359 -19.792419 3.7824061 1
17.334801 -19.767242 4.1247239 1
17.25808 -19.721395 -0.7417013 5
17.367977 -19.723267 -0.54775685 1.5
17.378223 -19.722836 -0.34844002 0
17.388468 -19.714375 -0.21686777 0
17.264088 -19.667059 -0.078232847 1
17.371695 -19.727165 0.048947729 1
17.347416 -19.736485 0.18086544 3
17.293196 -19.726982 0.57683498 5
17.261124 -19.732506 1.1055658 255
17.294306 -19.840828 1.2221922 255
17.295847 -19.822536 1.6275877 255
17.300234 -19.647778 2.3771451 0
17.296377 -19.668966 2.5168214 0
17.304092 -19.665485 2.6681228 0
17.319864 -19.71711 2.9540315 1
17.313887 -19.684582 3.1204734 0
17.349848 -19.739843 3.2614512 3
17.330296 -19.736504 3.4191992 1
17.265139 -19.570108 -0.77644157 11
17.357008 -19.561802 -0.46433628 1
17.284908 -19.586969 -0.58462977 10
17.363592 -19.568253 -0.33787632 1
17.369661 -19.565184 -0.14698732 0.5
17.376122 -19.558329 0.043327581 0
17.356749 -19.565908 0.17076135 1
17.301092 -19.573 0.8062861 5
17.322063 -19.805309 1.273695 255
17.278801 -19.662754 1.4309952 255
17.352869 -19.803553 1.6606866 3
17.30695 -19.733854 1.9415097 255
17.38422 -19.812126 1.7916183 0
17.337 -19.794012 2.0590551 255
17.299324 -19.687195 2.2257843 189
17.425398 -19.590134 2.553865 0
17.316711 -19.555897 2.4835672 1.5
17.327051 -19.590944 2.6875689 3
17.422306 -19.604649 2.9909844 0
17.316521 -19.579903 2.8372746 2
17.309116 -19.520189 3.0877624 0
17.420792 -19.602057 3.2999592 1
17.297604 -19.73571 -0.79969347 6.666667
17.232489 -19.696426 -0.63839728 2
17.320086 -19.763287 -0.46446636 3
17.334532 -19.758984 -0.2310086 2.5
17.34547 -19.753061 -0.056375049 2
17.3029 -19.716841 0.12037544 1
17.249411 -19.704075 0.41341478 1
17.254868 -19.728344 0.29570344 2
17.26759 -19.730236 0.64474314 3
17.319178 -19.758556 0.52647513 3
17.269106 -19.735584 0.76161098 3
17.314548 -19.759758 0.99523526 4
17.259813 -19.693787 1.1213282 1
17.300417 -19.749771 2.3586314 2
17.306791 -19.730974 2.5668447 1.5
17.309185 -19.678253 2.7921073 0
17.27832 -19.638531 -0.97430301 7
17.325325 -19.65123 -0.8062464 3
17.223589 -19.573826 -0.80267596 6.5
17.338879 -19.646574 -0.58154249 3.5
17.24906 -19.567223 -0.57882077 1
17.355852 -19.634953 -0.41390124 2
17.249493 -19.580505 -0.40908143 1
17.366545 -19.629883 -0.24610707 1.5
17.256483 -19.5802 -0.24155894 1.5
17.271011 -19.614416 0.036235429 3
17.268398 -19.611343 -0.074861012 4
17.279566 -19.615377 0.25904328 4
17.329445 -19.641502 0.14595565 3
17.342915 -19.650158 0.59280163 2
17.351103 -19.647076 0.70601892 1
17.313128 -19.645878 0.93075949 5
17.257317 -19.54632 2.2705145 0
17.307541 -19.592262 2.3927031 1
17.330166 -19.646683 2.5093191 2
17.20006 -19.554699 -0.78847384 2
17.167286 -19.720581 -0.87861538 17
17.32618 -19.625916 -0.58011246 3
17.23756 -19.565584 -0.62800223 3
17.319021 -19.621925 -0.41617334 3
17.325996 -19.617664 -0.20095634 3.5
17.325346 -19.624599 0.01344634 2
17.249659 -19.557936 0.28708234 1
17.343052 -19.615387 0.17406034 3
17.330677 -19.62022 0.38875446 2
17.327663 -19.62392 0.71097022 2
17.358431 -19.606926 0.9862867 2.5
17.264912 -19.551773 1.1560167 1
17.285692 -19.73362 1.2342556 255
17.31089 -19.785879 1.7809734 255
17.341024 -19.800314 2.3696408 1
17.284336 -19.807714 -1.047401 7
17.302757 -19.7537 -0.84586167 2
17.218298 -19.726103 -0.94289821 2
17.290953 -19.751938 -0.70754486 3.333333
17.353859 -19.794395 -0.28412193 1.5
17.27228 -19.705788 -0.026069609 1
17.271402 -19.790016 -0.12993407 12
17.343191 -19.802481 0.1724076 1
17.351498 -19.802431 0.3758288 1
17.336735 -19.79825 0.47763735 2
17.32288 -19.798958 0.73328489 3.5
17.295929 -19.768894 0.94386595 4
17.198795 -19.527611 1.3555822 255
17.3347 -19.656551 -0.74030405 3
17.217596 -19.581722 -0.7888841 2.5
17.332111 -19.657835 -0.59133595 3
17.241318 -19.578117 -0.59264451 3
17.331131 -19.65802 -0.39424503 2
17.242197 -19.576485 -0.44478673 2
17.260654 -19.550932 -0.152668 1
17.325907 -19.661495 -0.15022802 2
17.26582 -19.623432 -0.2476753 12
17.253042 -19.557928 -0.054803841 0
17.331638 -19.65361 -0.0532366 2
17.255089 -19.576889 0.23787346 1
17.356287 -19.646475 0.33725697 1
17.257984 -19.593262 0.62769789 1
17.3032 -19.651451 0.52935368 4
17.268225 -19.619078 0.77411383 3
17.287395 -19.634735 0.97335964 4
17.295979 -19.650057 1.1233603 5
17.212521 -19.577053 -0.91956884 2
17.239388 -19.560745 -0.68776023 1
17.299515 -19.659605 -0.73509485 4
17.221149 -19.606873 -0.82332176 4
17.240261 -19.558064 -0.50006515 2
17.317339 -19.652782 -0.54956645 2
17.249495 -19.543018 -0.36139521 1
17.313887 -19.647049 -0.27082223 2
17.330095 -19.635506 -0.17924482 1
17.251213 -19.591122 0.23826671 2.5
17.262999 -19.543388 0.47356954 0
17.279589 -19.640091 0.3739906 5
17.280199 -19.606647 0.70219284 2
17.321451 -19.646759 0.93737191 1
17.265543 -19.564404 1.0389273 1
17.315645 -19.841534 1.0947788 8
17.318199 -19.842842 1.431113 255
17.314894 -19.843384 1.6287473 255
17.235352 -19.765135 -0.91593897 18
17.356125 -19.784891 -0.93478382 1
17.230028 -19.727072 -0.78092694 4
17.319757 -19.808439 -0.74411017 2
17.263206 -19.711794 -0.60407263 1.5
17.327503 -19.813263 -0.60851556 3
17.346977 -19.806637 -0.38579705 1.666667
17.267015 -19.714609 -0.37918624 1.333333
17.285032 -19.778831 -0.15817852 3
17.344324 -19.806408 0.060878322 2
17.350136 -19.810883 0.19398013 1
17.35813 -19.813999 0.41723225 1
17.287956 -19.711315 0.42510989 0
17.353056 -19.820078 0.64157397 1
17.362654 -19.821545 0.77888483 1
17.240437 -19.689684 1.0647225 0
17.358231 -19.809769 1.0105441 3.5
17.280914 -19.696651 -0.85114139 4
17.230469 -19.611973 -0.71668714 5.333333
17.317059 -19.706776 -0.63953841 2
17.253263 -19.591846 -0.50517744 1.5
17.334394 -19.700388 -0.55592436 1
17.315893 -19.701036 -0.46805009 2
17.252438 -19.602455 -0.37686053 1
17.321526 -19.703976 -0.38348761 2
17.271334 -19.685328 -0.083914317 13
17.334845 -19.704281 0.29391938 1.333333
17.264776 -19.62813 0.38358825 1
17.337038 -19.701691 0.55046064 1
17.276169 -19.683331 0.46350074 9
17.341858 -19.707241 0.68005592 1
17.282314 -19.607164 0.68842739 1
17.356966 -19.711596 0.89934289 0
17.290922 -19.682968 0.89648736 2.5
17.316097 -19.71633 1.0712311 1
17.284075 -19.642727 -0.82479173 2
17.255322 -19.57173 -0.5881542 2
17.295069 -19.65185 -0.64787054 1.666667
17.258053 -19.580074 -0.46490219 1
17.308105 -19.686293 -0.47064742 2
17.262575 -19.580574 -0.30120051 1
17.340405 -19.678417 -0.30986783 1.5
17.301502 -19.668961 -0.062854953 7
17.279942 -19.565769 0.22866599 0
17.303139 -19.669563 0.180316 7.5
17.289173 -19.664427 0.34301525 2
17.265388 -19.602566 0.59453142 1
17.342136 -19.686495 0.50732827 1
17.27726 -19.581022 0.76527476 0.5
17.327208 -19.693579 0.71236259 1
17.325603 -19.684818 0.92449975 2
17.378895 -19.81728 1.0818627 0
17.279898 -19.669497 -0.91662407 3.75
17.270927 -19.589233 -0.70863116 1.5
17.313053 -19.701118 -0.71990681 3.5
17.280533 -19.580729 -0.5078274 1.333333
17.327271 -19.69882 -0.52026159 1.666667
17.259712 -19.602041 -0.34693593 1
17.330179 -19.701176 -0.28167862 2
17.320314 -19.654697 -0.09178625 0.66666698
17.295898 -19.63179 0.096620783 0.66666698
17.325308 -19.659245 0.29854232 2.25
17.28854 -19.580605 0.52929115 0
17.288681 -19.672438 0.47469413 4
17.293896 -19.586508 0.69183815 0
17.35288 -19.700739 0.67732388 0.66666698
17.320827 -19.672731 0.88487488 2
17.312134 -19.756941 0.99173951 0
17.310963 -19.718355 -0.97975892 3
17.273577 -19.608826 -0.81598556 1
17.3176 -19.720539 -0.86000872 2
17.271479 -19.610548 -0.65822697 1.666667
17.304501 -19.724678 -0.69977051 7
17.270489 -19.609272 -0.46390158 1.5
17.289759 -19.718777 -0.46507356 2.5
17.270523 -19.631115 -0.2723577 2.5
17.315626 -19.7159 -0.2756913 2
17.342127 -19.716705 0.029748799 1
17.302532 -19.713631 -0.084325671 2.5
17.268761 -19.677839 0.18228851 11
17.341198 -19.719831 0.10594241 1
17.269398 -19.652754 0.29760456 2
17.343994 -19.722927 0.33630443 0.33333299
17.33935 -19.726006 0.64678013 1
17.289305 -19.6087 0.57243907 0.5
17.335348 -19.72197 0.49025863 1
17.32391 -19.671761 0.78125489 1
17.283964 -19.616367 0.7281419 0
17.308691 -19.68371 0.93759984 1.333333
17.304949 -19.589796 -0.99661773 11.5
17.280304 -19.834532 -1.0332532 22
17.276123 -19.618172 -0.77922708 2.4000001
17.214788 -19.594353 -0.85866076 3
17.266409 -19.599342 -0.61337191 2
17.276312 -19.607752 -0.41367131 2.166667
17.27108 -19.609304 -0.23880699 7
17.289797 -19.64782 -0.0061729299 3.5
17.305443 -19.634762 0.18127401 1.4
17.277855 -19.546722 0.45213404 0.5
17.306868 -19.642637 0.3877542 1
17.289194 -19.544796 0.56798214 1
17.298969 -19.636803 0.59629577 1.5
17.273129 -19.547855 0.71909827 0
17.284855 -19.645418 0.82526135 3
17.374481 -19.75786 0.98489815 0
17.245569 -19.62623 -0.89439547 3.25
17.318651 -19.696192 -0.93027478 2
17.274851 -19.636929 -0.72823113 2.25
17.270418 -19.639009 -0.53976196 2.75
17.289347 -19.650806 -0.30351412 2.2
17.280432 -19.582178 -0.12958564 1
17.252436 -19.634449 0.051681429 5.333333
17.28525 -19.645231 0.2550717 1.25
17.294004 -19.638399 0.44966441 1
17.33173 -19.572853 0.7414254 0
17.362495 -19.717899 0.73234254 0
17.296267 -19.628828 0.61436683 2
17.288338 -19.662575 0.80233878 1
17.391148 -19.830416 0.88376087 0
17.188805 -19.762579 -1.1193314 25
17.325766 -19.706696 -0.94298542 2.666667
17.248795 -19.694279 -1.0294515 14
17.310385 -19.751574 -0.83877575 3
17.301434 -19.670794 -0.78391683 2.666667
17.310387 -19.625792 -0.68252134 2
17.33016 -19.748922 -0.61448324 3
17.288776 -19.650002 -0.56827056 2.5
17.317755 -19.748137 -0.42609259 2.5
17.288338 -19.660704 -0.38278788 3
17.305834 -19.630163 -0.15994443 1
17.290535 -19.717829 -0.20136184 13
17.321537 -19.621107 -0.04833227 1
17.355213 -19.753658 -0.01853485 1
17.284214 -19.700727 0.056748521 13
17.314882 -19.641399 0.28594995 1
17.349022 -19.758081 0.28069547 1
17.280491 -19.694239 0.16769737 10
17.282133 -19.695482 0.42820802 7
17.288689 -19.703634 0.35392088 8
17.332096 -19.628792 0.5933001 1
17.291445 -19.681015 0.65912843 2
17.371881 -19.76409 0.6663686 0
17.286171 -19.712561 0.50275064 5
17.289597 -19.711769 0.73301303 4
17.297001 -19.751183 -1.0609531 7
17.29583 -19.694811 -0.93785644 4
17.313757 -19.625269 -0.74071574 2
17.305122 -19.710527 -0.7485075 2
17.290922 -19.629852 -0.51060748 2
17.31616 -19.739901 -0.52482164 2.666667
17.28915 -19.653744 -0.33846623 12.666667
17.286865 -19.641268 -0.13769554 11.333333
17.299747 -19.652 0.085764177 5.333333
17.309177 -19.661835 0.23589575 1.5
17.337774 -19.58095 0.55665445 0
17.306257 -19.690065 0.42248014 3.5
17.29158 -19.685553 0.69191146 3.333333
17.324636 -19.58646 0.95246089 0
17.351751 -19.668594 0.86584163 7
17.220995 -19.623365 -0.87399757 2.666667
17.228687 -19.552219 -0.65156996 2
17.332989 -19.62093 -0.59984547 39
17.230049 -19.674757 -0.71063662 2.5
17.25601 -19.547958 -0.45933199 2.5
17.236002 -19.669109 -0.47538203 2
17.262753 -19.542274 -0.26492843 1
17.253082 -19.673019 -0.28376597 2
17.230879 -19.616547 -0.082249187 2.5
17.240364 -19.5844 0.11299363 8
17.232773 -19.586069 0.34141648 2.666667
17.273197 -19.546402 0.50456738 1
17.225296 -19.610298 0.56718433 6
17.28034 -19.542025 0.66175115 1
17.348431 -19.782883 0.95934194 0
17.233086 -19.615746 0.88052946 4
17.325251 -19.765799 1.0396651 0
17.274513 -19.664808 -0.92093581 4
17.292057 -19.602354 -0.61537081 2
17.277931 -19.674877 -0.71356428 3
17.306448 -19.60223 -0.49331868 2
17.272535 -19.717218 -0.51694947 2
17.30695 -19.60224 -0.28913814 1
17.279755 -19.72261 -0.39597464 2
17.317558 -19.608427 -0.12853034 0
17.273993 -19.692104 0.095143519 3.666667
17.283039 -19.68351 0.29895017 1
17.311768 -19.619585 0.60046577 0
17.292587 -19.693029 0.54232448 2
17.322025 -19.609837 0.68676227 0
17.301567 -19.735453 0.70014524 1
17.312061 -19.678295 0.94066721 1
17.29604 -19.740396 0.82360184 1
17.287437 -19.693115 1.0857031 5
17.223988 -19.605967 -0.88488811 5
17.261515 -19.559401 -0.64483142 3
17.23222 -19.638437 -0.70823014 4.333333
17.259409 -19.555624 -0.47589555 2
17.228529 -19.678911 -0.53004038 4
17.24538 -19.562288 -0.26736742 1
17.214659 -19.664591 -0.40183198 2
17.217804 -19.582886 -0.14526039 3
17.218288 -19.667122 -0.070326023 1
17.237179 -19.581701 0.10322583 2.666667
17.215382 -19.659948 0.0128929 1
17.253607 -19.559839 0.31437293 0.5
17.233471 -19.666115 0.34618187 1
17.211775 -19.634565 0.47177041 2.5
17.231102 -19.674608 0.59822118 1
17.297123 -19.560497 0.70161092 0
17.252993 -19.619814 0.7769137 0.5
17.251696 -19.688206 0.68639356 1
17.296535 -19.566273 0.91961026 1.5
17.254322 -19.630186 1.0388908 0.5
17.246456 -19.854399 1.1193041 255
17.250042 -19.853577 1.2573203 255
17.279507 -19.642046 -0.85666722 2
17.205404 -19.707272 -0.90472353 12
17.270435 -19.758947 -0.83330661 2
17.269039 -19.69421 -0.68673664 5.25
17.29183 -19.688789 -0.46643931 2.5
17.30422 -19.622192 -0.19318564 1
17.261347 -19.705193 -0.20600331 2
17.327517 -19.61002 -0.10423661 0
17.256819 -19.681787 -0.0295096 5
17.283888 -19.64336 0.19317065 2.5
17.249008 -19.69322 0.054811079 2
17.309174 -19.603666 0.41867959 0
17.266909 -19.719151 0.40001807 1
17.264299 -19.649925 0.53913456 4
17.325741 -19.597279 0.7760433 0
17.280874 -19.71509 0.66669327 1
17.33527 -19.59749 0.86845827 0
17.287182 -19.654524 1.0040779 1
17.342844 -19.71936 -0.90063554 2
17.385214 -19.708637 -0.69680977 3.333333
17.367228 -19.795988 -0.77581376 2
17.386929 -19.728844 -0.52815562 2.5
17.365416 -19.710623 -0.35350412 1.666667
17.4231 -19.661894 -0.097407117 0
17.372728 -19.723839 -0.20141588 1
17.375072 -19.690931 0.12654303 5
17.350204 -19.745125 0.34841225 2
17.398323 -19.67197 0.55034178 1
17.358164 -19.771084 0.48656788 1
17.365826 -19.777342 0.72192138 1
17.372538 -19.78212 0.62794656 1
17.425533 -19.674923 0.93566239 1
17.361435 -19.773209 0.86501199 1
17.274677 -19.563879 1.1478926 255
17.350266 -19.773439 1.0549351 128
17.304598 -19.693893 -0.95693046 5.5
17.30843 -19.622383 -0.79577124 2
17.250269 -19.70603 -0.75833726 6
17.315784 -19.616814 -0.59997714 3
17.26527 -19.725288 -0.61646712 6
17.313213 -19.615906 -0.4061749 1
17.260014 -19.711079 -0.37236196 2
17.327909 -19.621635 -0.16595426 1
17.276823 -19.729727 -0.18223351 1
17.345219 -19.615948 0.12560397 1
17.31312 -19.605839 0.02758118 1
17.317623 -19.6134 0.31726044 1
17.32703 -19.609087 0.51309645 0
17.276173 -19.709255 0.44842905 1
17.270256 -19.707962 0.64402461 1
17.282133 -19.639675 0.8483001 2
17.244455 -19.615538 1.0410528 6.5
17.304615 -19.624405 -0.85474724 2
17.235195 -19.730045 -0.87115568 10
17.296928 -19.614101 -0.69836062 2.5
17.235249 -19.723318 -0.71596974 2
17.267504 -19.652716 -0.51805097 4.666667
17.30051 -19.610626 -0.29249686 1.5
17.317474 -19.603476 -0.13949479 0
17.245075 -19.701403 -0.055195231 1
17.258404 -19.632404 0.1050673 7.5
17.26524 -19.6168 0.35908896 2
17.255199 -19.70834 0.45032614 1
17.332115 -19.599451 0.77978176 0
17.249111 -19.657114 0.65747285 2
17.250635 -19.651831 0.86438209 3
17.301428 -19.76527 -0.87126106 3
17.365154 -19.636068 -0.63273513 2
17.366844 -19.642445 -0.74258989 2
17.288464 -19.751362 -0.7597205 6
17.379257 -19.637558 -0.47115594 1
17.30864 -19.739794 -0.48770261 0
17.356039 -19.635086 -0.2563991 0.5
17.304831 -19.73727 -0.27233231 0
17.343199 -19.627901 -0.04189457 1
17.306023 -19.725517 0.42956138 0
17.296131 -19.715698 0.53763819 0
17.368061 -19.60931 0.9975822 0
17.312126 -19.710535 0.87062454 1
17.379034 -19.613287 1.1131787 0
17.205849 -19.583206 -1.0036131 19
17.255098 -19.685144 -0.91190499 4
17.30221 -19.589964 -0.72388917 2.5
17.233931 -19.654137 -0.50948554 5
17.264906 -19.605083 -0.27561688 7
17.30398 -19.588501 -0.10215109 1
17.268728 -19.603329 0.1174813 2
17.298529 -19.595812 0.23487872 1
17.277306 -19.597193 0.45867985 1
17.242212 -19.640057 0.56385976 2
17.326378 -19.599869 0.69623888 0
17.390526 -19.659967 -0.72548121 1
17.389351 -19.65424 -0.59559667 1
17.382227 -19.657261 -0.40470743 1
17.374538 -19.655781 -0.15012859 2
17.352377 -19.659533 0.03859771 4
17.370907 -19.667835 0.2315826 0.5
17.352066 -19.757742 0.54290903 0
17.345648 -19.817684 1.333117 255
17.342514 -19.631586 -0.77215868 1
17.341167 -19.678082 -0.48583668 0
17.255939 -19.806688 4.8819194 0
17.242212 -19.723085 1.1588519 0
17.242064 -19.716516 3.299911 1
17.22118 -19.758478 3.8376894 3
17.225676 -19.757126 4.9300404 2
17.143757 -19.560919 1.6543585 255
17.158596 -19.60795 2.1894407 255
17.238945 -19.592934 3.8155785 3
17.270178 -19.771368 0.85409158 0
17.15979 -19.66597 1.386816 255
17.164417 -19.653339 1.9258609 255
17.170732 -19.648405 2.4636905 255
17.267321 -19.709009 3.0124724 2
17.257698 -19.746765 3.5539856 3
17.237284 -19.776121 4.0974522 2
17.218439 -19.806999 4.6441846 1
17.228338 -19.829391 0.11243321 2
17.194214 -19.85948 0.65206599 5
17.222874 -19.81563 1.1971409 1
17.177876 -19.826456 2.8208618 3
17.231701 -19.760296 -0.51300967 1
17.210451 -19.783209 0.031158781 4
17.203674 -19.817617 0.57687128 2
17.260729 -19.770889 2.7685044 2
17.244701 -19.804667 3.316025 2
17.218193 -19.823359 3.8634284 3
17.27569 -19.782465 4.4227648 1
17.266562 -19.815426 4.9797635 4.666667
17.22617 -19.7931 3.2681472 2
17.242355 -19.786921 3.8257267 0.5
17.235279 -19.769348 4.3799081 2
17.244127 -19.717421 4.75878 0.66666698
17.223555 -19.721985 0.19051436 2
17.217577 -19.758778 0.75950837 1
17.262596 -19.714012 1.333087 0
17.186663 -19.867014 2.4685762 255
17.227863 -19.748592 3.0446665 1.5
17.233826 -19.730598 3.6200106 2
17.215244 -19.757885 4.191534 2
17.210421 -19.79549 4.7713075 3
17.19725 -19.71179 -0.51553035 1
17.193306 -19.75396 0.05476499 3
17.207382 -19.746616 0.62933707 1
17.240532 -19.723055 2.3529475 2
17.25795 -19.779879 2.9284055 3
17.283463 -19.779428 3.5095327 1
17.271996 -19.752283 4.0846367 2
17.265224 -19.665129 4.6638527 1
17.199928 -19.760841 4.8041701 3
17.207634 -19.614386 1.8907316 128
17.27335 -19.814304 2.4735746 0
17.268806 -19.838762 3.0513129 1
17.203613 -19.628279 4.7837281 1
17.176025 -19.585192 1.2757733 255
17.175817 -19.558331 1.8560972 255
17.215776 -19.712156 1.8569853 255
17.248491 -19.861858 1.8573842 255
17.19907 -19.61046 2.4352465 255
17.262724 -19.690815 3.0253024 2
17.292498 -19.66412 4.1984649 1
17.274857 -19.688669 4.7858267 1
17.244858 -19.599817 1.8359897 255
17.306168 -19.5476 3.0098262 1
17.290066 -19.553118 3.5936916 1
17.294716 -19.572777 4.1858239 2
17.277775 -19.584982 4.7754049 2
17.230766 -19.719606 -0.47196788 0
17.245277 -19.638535 0.11752731 1
17.242363 -19.664734 0.70209104 2
17.206646 -19.85964 1.2843995 255
17.168125 -19.670843 1.8703847 255
17.215778 -19.731503 2.4606633 57
17.284439 -19.678558 3.051825 1
17.265442 -19.693918 3.6415834 2
17.264412 -19.728552 4.2333674 2
17.224396 -19.858019 0.055088252 0
17.203993 -19.785372 0.65167212 2
17.192709 -19.851778 1.2367766 2
17.208681 -19.809244 3.0174453 2
17.204573 -19.811981 4.2064252 1
17.186459 -19.657648 1.9478171 129
17.248119 -19.535114 1.9592503 191.5
17.224602 -19.588406 2.5529287 255
17.272713 -19.811539 2.547646 255
17.27496 -19.695314 3.7553043 1
17.307842 -19.593338 2.5419099 12
17.352654 -19.613312 4.9958043 1
17.197708 -19.809002 1.2443116 255
17.199154 -19.808397 1.8510616 255
17.189651 -19.728695 2.4602263 1
17.262737 -19.830811 3.0757923 2
17.28252 -19.824169 4.3034987 2
17.222408 -19.775486 4.9073758 4.5
17.245531 -19.836411 1.1509513 155.33333
17.231604 -19.806471 1.7665457 255
17.194843 -19.587074 2.2400374 207.5
17.193336 -19.612495 2.857203 255
17.183689 -19.58852 1.088475 255
17.204144 -19.68181 1.7070255 255
17.276394 -19.676367 2.3325527 1
17.250786 -19.742222 2.9518423 1
17.321598 -19.669964 3.5814216 1
17.314995 -19.689091 4.2066588 1
17.32262 -19.70962 4.8354082 0
17.234062 -19.728678 -0.01425627 5
17.217823 -19.735533 0.60989594 5
17.206036 -19.745001 1.2308261 3
17.189003 -19.808777 3.7263749 1
17.233814 -19.73744 4.9849253 0
17.185375 -19.742989 0.10528651 6
17.188023 -19.751785 0.72946846 4
17.171021 -19.748796 1.355355 3
17.391888 -19.640055 -0.99897826 5
17.181751 -19.759041 0.26445341 3
17.209568 -19.766071 0.88984823 2
17.223324 -19.59161 4.6649814 0
17.193851 -19.817549 1.2563323 3
17.181419 -19.810778 1.8879529 3
17.202732 -19.728765 0.0088706603 4
17.26228 -19.685017 0.65181977 1
17.201752 -19.780581 0.64377266 1
17.190094 -19.701969 1.2835898 3
17.213882 -19.739788 3.1978076 1
17.269062 -19.58042 -0.22211668 4
17.307262 -19.54398 0.42209414 4
17.285908 -19.596783 1.0571384 3
17.227058 -19.628197 1.6932883 255
17.284252 -19.793289 1.6874266 255
17.230717 -19.56394 2.3361752 255
17.30732 -19.605234 3.6250737 1
17.27528 -19.793533 -0.039416701 2
17.233253 -19.830692 0.60070479 6
17.245445 -19.813112 4.4654403 1
17.200813 -19.721739 0.36922354 2
17.246059 -19.584057 2.0550075 12
17.247751 -19.569223 0.28833866 1
17.233786 -19.604471 0.94566369 3
17.148596 -19.601215 1.6028812 255
17.158018 -19.648939 2.2601538 255
17.247232 -19.605694 2.9301305 2
17.259665 -19.65513 3.5909791 1
17.215029 -19.769314 -0.40497348 6
17.191065 -19.79776 0.25557426 5
17.171988 -19.788071 1.5810447 255
17.185987 -19.762184 2.2435949 255
17.286425 -19.613499 -0.71285391 1
17.203121 -19.645279 2.4886148 11
17.248329 -19.841162 1.5351865 255
17.176678 -19.583712 2.2614346 255
17.242111 -19.676783 2.9812255 1
17.261684 -19.604763 3.702971 1
17.250328 -19.661003 4.4231009 2
17.264658 -19.545555 1.1315562 3
17.228193 -19.581436 1.9803387 174.33333
17.193222 -19.636269 2.4802959 24.5
17.265308 -19.566404 1.3708404 14
17.190357 -19.574121 1.5552756 255
17.179344 -19.733917 2.2205493 255
17.168575 -19.76111 1.9927539 255
17.187931 -19.714207 1.8391542 255
17.194157 -19.706005 2.1968031 255
17.186352 -19.674294 2.2660301 255
17.187901 -19.878096 2.1849599 255
17.220913 -19.716202 1.3361413 255
17.196087 -19.565296 -0.34908509 4
17.148495 -19.563467 2.1390097 255
17.150909 -19.573835 2.4331889 255
17.310539 -19.682808 4.9320316 2
17.223557 -19.773834 2.0224519 255
17.184368 -19.649963 1.3765196 255
17.177723 -19.591274 2.2713799 255
17.191559 -19.578579 2.0652666 255
17.248211 -19.694534 1.3819543 4
17.272804 -19.599958 2.0474412 210
17.258965 -19.68685 2.5851083 6
17.247089 -19.848015 1.718821 255
17.234699 -19.613293 1.7661529 255
17.239456 -19.543871 1.3675029 255
17.245529 -19.632534 1.2369542 255
17.198288 -19.713974 1.842535 255
17.173161 -19.588469 1.5748122 255
17.186478 -19.709301 1.2274756 179
17.171989 -19.635698 2.5998302 50
17.249828 -19.803274 1.4961673 255
17.220898 -19.56966 1.5456642 255
17.211792 -19.764847 2.1655989 255
17.178219 -19.632488 1.6165893 255
17.233654 -19.867649 1.4821137 116
17.174259 -19.637047 1.5321629 255
17.21912 -19.673285 2.1834595 255
17.216785 -19.535467 0.20220107 5
17.244457 -19.799868 1.5073032 255
17.161835 -19.612484 2.1103926 255
17.277351 -19.820217 4.794734 4
17.249512 -19.586491 4.8463993 3
17.171062 -19.669235 1.6930597 255
17.225849 -19.733223 1.2034827 255
17.212399 -19.583389 2.1282172 255
17.200024 -19.783688 2.2613029 255
17.279232 -19.578871 5.0555472 3
17.177261 -19.648203 2.2473838 255
17.298279 -19.820152 4.9330378 5
17.200283 -19.835758 1.9720517 255
17.193478 -19.771404 0.99839401 2
17.204807 -19.644791 2.4062345 16
17.186523 -19.545017 2.1033499 255
17.152306 -19.536825 1.9203026 255
17.179951 -19.657616 1.9236283 255
17.177361 -19.5868 2.0120611 255
17.160801 -19.578579 1.7940738 255
17.159691 -19.53809 2.3060579 255
17.208282 -19.736183 2.2201331 255
17.200699 -19.813164 2.0812731 255
17.237434 -19.613663 4.9109221 3
17.248772 -19.528545 4.9047613 3.5
17.190575 -19.780138 1.9308294 255
17.249676 -19.764076 1.0057025 2
17.199436 -19.635529 2.4110634 255
17.183392 -19.656647 1.8949137 255
17.21431 -19.720932 2.4574976 130
17.167583 -19.545504 1.7508872 255
17.16711 -19.615765 1.5596628 255
17.202957 -19.792679 2.1937549 255
17.260757 -19.638916 4.9573364 4
17.187046 -19.661938 2.1620181 255
17.331997 -19.734306 4.8763366 3.5
17.199749 -19.684525 1.1842612 255
17.213192 -19.695389 2.541152 62
17.174862 -19.645811 2.2395039 255
17.210812 -19.76429 1.9662316 255
17.184933 -19.677156 1.8374685 255
17.167675 -19.552927 1.7886972 255
17.180885 -19.676559 2.0084939 255
17.178444 -19.643959 2.1729164 255
17.156124 -19.596788 2.2786694 255
17.209755 -19.822815 1.2224271 255
17.193611 -19.694338 2.5506701 85
17.184093 -19.831533 2.0619545 255
17.161915 -19.686796 2.386375 255
17.18536 -19.599386 2.2992756 255
17.29916 -19.809109 5.0060868 2
17.184891 -19.666443 1.5497308 255
17.241234 -19.822693 1.7735519 255
17.209972 -19.817621 2.0194495 255
17.305485 -19.764563 4.8261609 5
17.240932 -19.542152 4.8951893 4
17.146477 -19.551577 -0.51541799 4
17.27861 -19.799257 4.9550171 4
17.201614 -19.578615 5.0183926 3
17.176754 -19.554152 -0.16188318 5
17.210735 -19.807373 1.1600711 255
17.219765 -19.618559 -0.43665731 5
17.220741 -19.721457 2.3025961 255
17.180237 -19.750584 1.8602191 255
17.18528 -19.578585 0.10927826 3
17.161213 -19.557333 1.866363 255
17.246624 -19.528074 4.682158 4
17.243202 -19.846319 1.4463067 255
17.255257 -19.807936 1.6902224 255
17.224003 -19.709299 1.9389247 255
17.154419 -19.540333 1.1501257 255
17.164082 -19.550295 1.5460482 156
17.176723 -19.702076 1.3162503 137
17.21043 -19.688356 2.0298195 255
17.327229 -19.820663 4.8181415 4
17.184052 -19.722931 1.4189737 255
17.197517 -19.867115 1.8452412 255
17.208424 -19.815533 2.4310555 147.5
17.194248 -19.594858 1.7513623 255
17.173988 -19.631588 1.7762961 255
17.160503 -19.686386 1.926724 255
17.221661 -19.835314 1.3412696 255
17.269264 -19.853533 1.9377207 255
17.292961 -19.562683 4.8477359 3
17.168591 -19.639242 -0.21792078 3
17.219494 -19.798477 1.1434886 255
17.229813 -19.843311 2.2025738 255
17.213108 -19.718176 1.6310315 255
17.235703 -19.671068 -0.39367324 3
17.249504 -19.710052 0.98370451 7
17.244537 -19.757065 2.3633358 255
17.192448 -19.53784 1.1702052 255
17.218094 -19.725443 1.9642591 255
17.356972 -19.751894 4.7597466 3
17.181534 -19.811199 1.3266854 255
17.238037 -19.865091 2.3167078 44
17.183308 -19.867611 1.6504555 81
17.189953 -19.681768 0.93332499 255
17.230473 -19.753681 2.3260577 49
17.206722 -19.819853 1.8517613 255
17.186398 -19.631437 1.6013635 255
17.31337 -19.807297 1.0436664 21
17.238457 -19.554104 2.527226 147
17.174301 -19.70648 1.5143251 255
17.246307 -19.711075 2.9070196 10
17.286602 -19.802353 2.4801891 28
17.20425 -19.58543 2.5346897 8
17.149292 -19.582312 1.9610573 255
17.178699 -19.612215 2.1152973 255
17.193249 -19.669836 0.97032905 6
17.188229 -19.657602 2.3533599 255
17.257702 -19.838057 1.7039216 255
17.232964 -19.865122 1.9642745 255
17.157501 -19.640951 2.0119104 255
17.203041 -19.697777 1.795133 255
17.21698 -19.55114 1.1012721 255
17.259399 -19.528965 2.4890294 127.5
17.203335 -19.749741 1.9565479 255
17.231293 -19.849777 1.8652409 255
17.190765 -19.690849 1.1545759 135.5
17.214752 -19.715992 2.52706 255
17.175232 -19.755798 1.8596305 255
17.191444 -19.64677 1.7387193 255
17.236092 -19.735928 2.0328925 255
17.27475 -19.749325 1.6727595 255
17.212608 -19.524235 1.7099328 255
17.205479 -19.773464 2.5651298 8
17.214565 -19.755363 1.7511767 255
17.281857 -19.819645 1.8638943 255
17.177166 -19.560165 1.6961422 255
17.157436 -19.580379 1.024308 31
17.174881 -19.690159 1.6122204 255
17.222496 -19.592773 1.8054281 255
17.296047 -19.809559 1.5564176 255
17.212322 -19.707741 1.9982445 255
17.267776 -19.823769 1.6081555 255
17.218956 -19.829521 2.1441855 255
17.156387 -19.61404 2.1781478 255
17.252239 -19.811783 2.0880849 255
17.184631 -19.872982 1.3792806 255
17.17704 -19.793888 2.6792436 5
17.15295 -19.623302 0.40697986 3
17.246613 -19.691311 1.2273853 255
17.204479 -19.725117 1.3026969 255
17.262268 -19.653233 1.5716282 255
17.341099 -19.564796 1.6143286 255
17.415581 -19.570408 1.7592008 255
17.30901 -19.639336 1.641304 255
17.323402 -19.789017 1.133667 255
17.320255 -19.672318 2.3991852 232.5
17.212036 -19.643497 -0.56775331 4
17.178242 -19.605087 1.8169752 255
17.224365 -19.570305 -0.44168591 3
17.233974 -19.669476 1.4573826 255
17.234413 -19.523354 2.1465917 255
17.271034 -19.644093 0.99234039 180
17.323795 -19.830494 2.2465279 255
17.260147 -19.706375 0.99351192 7
17.191353 -19.786575 1.3275442 255
17.222279 -19.663094 1.2056898 255
17.185307 -19.553024 1.8957688 255
17.150963 -19.568157 1.5544031 255
17.240955 -19.754299 1.1416951 255
17.171238 -19.543564 1.1539594 255
17.338707 -19.791969 2.4077778 186
17.283184 -19.573734 2.421175 67
17.17028 -19.770718 1.1379082 255
17.236256 -19.694546 2.4107945 221.5
17.236801 -19.867294 1.868773 255
17.208382 -19.639843 1.8471403 255
17.260086 -19.800472 1.3736932 255
17.327915 -19.652363 2.4017065 255
17.220535 -19.845707 1.1798985 255
17.205795 -19.678215 2.4795477 14
17.264881 -19.703465 -0.32724595 2
17.249321 -19.655174 0.94267344 5
17.245632 -19.616344 2.2149255 255
17.198517 -19.574398 1.1062992 255
17.220856 -19.653069 2.3592279 255
17.289631 -19.572662 1.1716149 255
17.402328 -19.683117 2.4159272 76.5
17.344975 -19.661144 2.1740758 255
17.246181 -19.595016 1.2322607 255
17.383659 -19.793861 2.4833918 36
17.228813 -19.628704 1.7229939 255
17.194473 -19.76857 2.3074498 255
17.191532 -19.787243 2.502758 22
17.195602 -19.873444 0.93787605 20
17.191391 -19.696373 -0.83431298 7
17.175255 -19.761936 1.0146736 153
17.178215 -19.828247 2.2725854 255
17.184246 -19.694031 1.7757021 255
17.32835 -19.800251 1.3166025 255
17.287697 -19.72813 1.0033704 67
17.264442 -19.827766 2.2523193 255
17.181767 -19.851284 1.9389795 255
17.217674 -19.782406 4.7517395 4
17.238235 -19.841393 1.9750903 255
17.171925 -19.621475 2.0003722 255
17.218529 -19.657066 2.095047 255
17.242558 -19.536976 1.7579749 255
17.294067 -19.721569 1.6063184 255
17.190277 -19.568279 1.3437773 255
17.259171 -19.799488 3.7500496 2
17.175583 -19.655895 -0.92373341 5
17.179604 -19.767345 0.31775814 3
17.192513 -19.873653 1.5607877 255
17.264973 -19.634911 1.0037749 21
17.271248 -19.67992 2.257869 255
17.262627 -19.646233 1.2846189 255
17.221794 -19.760963 1.0314989 172.5
17.20845 -19.771317 2.2808762 255
17.156963 -19.546917 2.2997246 255
17.271324 -19.743977 1.9468393 255
17.329586 -19.686813 1.6069394 255
17.264133 -19.699219 1.4224226 255
17.171825 -19.674644 1.808655 255
17.192123 -19.8097 1.055781 255
17.263016 -19.805134 2.2631249 255
17.165882 -19.623905 1.9082439 255
17.311913 -19.584625 2.1624627 255
17.256874 -19.573879 0.9403609 7
17.222755 -19.596653 1.7937305 255
17.289696 -19.6544 1.3312442 255
17.338444 -19.6702 1.9087348 255
17.388721 -19.707264 1.1600212 82
17.369621 -19.700779 2.3132892 255
17.275642 -19.532616 2.3420072 255
17.396648 -19.61261 1.5542918 255
17.330837 -19.61248 1.5329489 255
17.237629 -19.628597 1.1042502 255
17.172787 -19.786251 1.1364731 255
17.186871 -19.722836 1.9255064 255
17.293236 -19.782883 1.1045623 173
17.263859 -19.763691 2.2120566 255
17.278522 -19.845295 1.6753758 255
17.203499 -19.555965 1.7007331 255
17.225906 -19.845455 0.9206332 51.5
17.18092 -19.667255 1.4345617 255
17.262428 -19.80537 1.820907 255
17.215866 -19.614174 1.8395818 255
17.182011 -19.55294 1.6198955 255
17.307722 -19.722675 1.6537712 255
17.187046 -19.611008 2.2322764 255
17.247169 -19.850296 1.0781143 255
17.229343 -19.79446 2.153568 255
17.297934 -19.815605 1.5273099 255
17.354771 -19.75013 0.94600379 9.5
17.277611 -19.599323 2.0163507 255
17.208366 -19.866474 1.2788644 255
17.269421 -19.742607 2.3410249 7
17.309837 -19.689903 1.6291902 255
17.325584 -19.738594 1.510707 255
17.241199 -19.825214 1.278194 255
17.287563 -19.752735 2.3029571 255
17.194134 -19.758217 -0.31754571 2
17.207672 -19.654331 1.7210724 255
17.301359 -19.572937 -0.68332899 3
17.383757 -19.789997 1.3067423 255
17.29249 -19.641018 1.3272749 255
17.412649 -19.699203 2.3337865 31
17.278584 -19.560326 1.0152352 47
17.241253 -19.599113 2.0216534 255
17.169769 -19.713142 1.6947014 255
17.164192 -19.71772 -0.86089492 3
17.16869 -19.667271 1.1438334 255
17.215694 -19.770191 2.1296694 255
17.178299 -19.598488 1.8258386 255
17.344072 -19.596222 0.93666446 205.5
17.321592 -19.609016 1.9444751 255
17.187412 -19.815693 -0.22567677 3
17.362749 -19.823112 0.93994558 58
17.226406 -19.609261 1.6550062 255
17.26947 -19.612316 1.8561125 255
17.216879 -19.737835 1.5429711 255
17.255947 -19.596325 -0.26262951 3
17.278809 -19.72295 1.6474237 255
17.182796 -19.665264 1.4638793 255
17.270889 -19.70919 2.4210489 255
17.248514 -19.696793 0.034529328 4
17.238722 -19.77103 1.9476048 255
17.163307 -19.727409 -0.73420429 2
17.208052 -19.700665 1.3636372 255
17.308062 -19.732147 1.2696881 255
17.178032 -19.774822 -0.68353915 4
17.202072 -19.854893 1.1665108 255
17.252352 -19.682888 -0.26486003 5
17.232054 -19.62093 1.6062499 255
17.302332 -19.789711 -0.3946774 3
17.248072 -19.654255 1.4781291 255
17.171936 -19.721416 -0.22712636 4
17.241226 -19.86018 1.5929725 255
17.15731 -19.624928 1.6237075 255
17.231335 -19.71434 2.527931 6
17.216394 -19.667557 -0.81835735 4
17.248972 -19.678497 1.0152599 111
17.18125 -19.55093 1.9470445 255
17.300985 -19.829346 1.5253755 255
17.195658 -19.773125 -0.94736445 4
17.216379 -19.729832 -0.03013527 6
17.228621 -19.695576 0.89329231 4
17.155115 -19.539249 1.8394545 255
17.249998 -19.620197 1.0743297 255
17.266039 -19.655258 1.9826444 255
17.332159 -19.588078 2.5404191 4
17.311073 -19.795311 1.7216755 255
17.254881 -19.546921 1.5392883 255
17.170181 -19.776787 -0.91416538 7
17.284304 -19.73193 -0.16437793 1
17.275381 -19.725571 0.75944448 2
17.241098 -19.752113 1.6791823 255
17.202574 -19.579674 1.7063496 255
17.251144 -19.581017 1.4730996 255
17.358307 -19.703545 2.3665257 11
17.283541 -19.593208 0.98695076 255
17.286139 -19.612511 1.9107054 255
17.258081 -19.757816 2.5280771 15.5
17.160007 -19.675053 -0.8349328 5
17.243156 -19.703796 0.98348665 15
17.177376 -19.603645 1.9153075 255
17.244705 -19.733154 0.35841644 3
17.266098 -19.854038 1.2593106 255
17.199905 -19.602795 1.2880496 255
17.263191 -19.793705 2.1880016 255
17.204517 -19.537056 2.218977 255
17.26557 -19.644199 -0.075230181 3
17.329737 -19.802471 1.742352 255
17.259123 -19.556427 1.7755704 255
17.346888 -19.642124 2.6793904 3
17.331036 -19.541103 -0.38140833 3
17.364754 -19.627678 1.4496921 255
17.373362 -19.561409 1.2045174 255
17.386297 -19.580051 2.125392 255
17.306463 -19.623882 -0.54141688 2
17.273321 -19.590893 1.291383 255
17.298571 -19.654243 2.2076771 255
17.215744 -19.744808 1.8171794 255
17.171665 -19.577503 1.8239515 255
17.324484 -19.754242 2.3148494 255
17.280863 -19.587719 2.3300233 123
17.221802 -19.75172 1.3351538 255
17.234402 -19.819561 1.2234112 255
17.199678 -19.726154 -0.86965573 4
17.176264 -19.718784 0.99083221 11
17.211252 -19.64687 0.97559309 7
17.221994 -19.847851 1.8815751 255
17.176245 -19.68531 1.9089541 255
17.263577 -19.670441 -0.29200315 3
17.238289 -19.671967 0.64046431 2
17.268284 -19.82991 1.5405698 255
17.20153 -19.58239 1.5784192 255
17.332813 -19.772221 2.4747167 43
17.401096 -19.745686 1.392511 255
17.348028 -19.810543 1.2323166 255
17.267122 -19.573807 1.252997 255
17.233007 -19.661034 -0.13604653 3
17.226515 -19.811325 1.473001 255
17.180029 -19.647301 1.4854302 255
17.19142 -19.843681 1.5965115 255
17.193838 -19.81955 -0.51453507 2
17.206955 -19.730892 2.3197062 107
17.190746 -19.834969 -0.85867143 2
17.198883 -19.743221 -0.017873529 5
17.166084 -19.639229 1.8265054 255
17.246151 -19.774845 -0.46456122 1
17.229744 -19.718975 0.45868278 4
17.242363 -19.857025 1.3601558 255
17.168324 -19.609371 1.388912 255
17.226891 -19.790272 2.2796972 255
17.240471 -19.729328 -0.64515162 4
17.219086 -19.675072 0.27837372 4
17.184837 -19.64378 1.199131 255
17.225033 -19.734512 2.1002274 255
17.179585 -19.566547 2.1201525 255
17.182899 -19.694 -0.47093844 5
17.178261 -19.663315 1.3600342 255
17.23798 -19.85408 2.2519763 255
17.21497 -19.66888 2.2729094 255
17.265076 -19.678726 0.92573845 4
17.195774 -19.560364 1.8569137 255
17.222059 -19.716545 -0.57482731 5
17.197573 -19.655933 1.2566031 255
17.256567 -19.830719 2.1607008 255
17.229939 -19.724415 0.19870591 2
17.236347 -19.834835 1.1125367 255
17.189087 -19.66991 1.1281197 255
17.207348 -19.669239 2.0438244 255
17.192795 -19.623615 -0.82174599 2
17.250195 -19.609497 1.0152739 89
17.249718 -19.740833 1.9299906 255
17.260275 -19.698261 -0.84844136 6
17.236387 -19.667431 1.5054468 29.333334
17.240286 -19.699921 -0.84246922 9
17.227861 -19.694378 0.98060799 21
17.210447 -19.804218 1.8851643 255
17.146009 -19.549747 1.9065838 255
17.178625 -19.795002 0.0111016 5
17.239866 -19.861034 0.91480148 2
17.224815 -19.805809 0.72562772 1
17.193573 -19.839165 1.6346748 255
17.255329 -19.809277 2.5475776 2
17.190674 -19.795284 0.77310216 2
17.165113 -19.731262 -0.66555083 7
17.147482 -19.564152 2.0961432 255
17.180063 -19.70768 -0.70692217 2
17.150309 -19.591633 2.0671144 255
17.194515 -19.670658 -0.62555569 3
17.218224 -19.868607 1.1835129 255
17.221474 -19.831089 2.1132128 255
17.273849 -19.69949 0.68715906 2
17.273472 -19.854176 1.5869489 255
17.166286 -19.534931 1.6303115 255
17.210953 -19.656319 2.5394368 3
17.213234 -19.731583 -0.79696321 7
17.193771 -19.638508 1.0426469 255
17.183128 -19.595005 1.964582 255
17.201923 -19.769783 0.55537832 3
17.274914 -19.839603 2.3740458 5
17.1842 -19.681583 -0.68817985 2
17.191669 -19.730827 2.0635009 255
17.237909 -19.794151 0.18205792 2
17.25001 -19.743683 1.1025529 89
17.177942 -19.673801 2.0367846 255
17.183605 -19.760273 -0.43422985 6
17.203251 -19.783195 -0.46664923 2
17.186615 -19.735546 0.45311433 2
17.198418 -19.835655 2.282521 255
17.160526 -19.664001 2.3056867 255
17.264172 -19.787643 0.095367312 1
17.232868 -19.774063 1.0160512 255
17.220959 -19.757744 1.9378003 255
17.181986 -19.78167 2.0364854 255
17.184896 -19.683842 1.7643627 255
17.162102 -19.623096 1.5265368 255
17.264118 -19.735809 2.4323606 10
17.268007 -19.795006 2.3499603 142
17.240866 -19.766037 -0.93141317 2
17.188978 -19.695007 1.8754525 255
17.236708 -19.795151 1.7330481 255
17.171865 -19.547009 1.7804638 255
17.291912 -19.647934 -0.83969235 8
17.228165 -19.687496 0.084780447 2
17.272625 -19.651558 1.0068939 96
17.208324 -19.607574 1.9522989 255
17.152811 -19.538628 1.4459795 255
17.249063 -19.640961 2.3476577 108
17.212067 -19.755703 0.1399281 3
17.191505 -19.75074 1.0708649 255
17.204571 -19.819176 1.9826119 255
17.148643 -19.562901 2.0212262 255
17.167049 -19.65617 1.3880163 255
17.263401 -19.68943 2.3086963 204.5
17.22205 -19.762196 1.4451098 255
17.173313 -19.602394 1.4731574 255
17.254488 -19.822704 1.6988837 255
17.205923 -19.663143 1.7282997 255
17.180611 -19.682041 1.3347011 255
17.266573 -19.65266 -0.77661842 6
17.275019 -19.638775 -0.82262123 6
17.1961 -19.630096 1.0361329 7.5
17.230341 -19.602077 1.036069 15
17.248957 -19.667805 -0.83394909 4
17.247503 -19.810677 1.0033197 7
17.211119 -19.639797 1.0254774 14
17.199846 -19.838177 1.4816645 255
17.18018 -19.674629 1.3102952 255
17.171698 -19.721348 -0.37910169 2
17.202105 -19.761311 1.4646301 255
17.190907 -19.768097 1.163354 255
17.198616 -19.757442 2.095253 255
17.175991 -19.752022 -0.75240707 3
17.211559 -19.702065 0.168643 2
17.18655 -19.70509 1.0999737 255
17.168785 -19.601814 2.0381298 255
17.216738 -19.721973 -0.01276028 4
