# .PCD v0.7 - Point Cloud Data file format
VERSION 0.7
FIELDS x y z intensity
SIZE 4 4 4 4
TYPE F F F F
COUNT 1 1 1 1
WIDTH 642
HEIGHT 1
VIEWPOINT 0 0 0 1 0 0 0
POINTS 642
DATA ascii
7.0674095 -10.923614 -0.26286501 7
7.0770082 -10.998513 -0.50891387 1
7.0037079 -10.887787 -0.94895446 27
7.0068974 -10.859604 -0.7291038 255
7.0607047 -10.880093 -0.97888923 80
7.064064 -10.918696 -0.99358428 75
7.0237727 -10.921959 -1.1694866 77
7.0183401 -10.927719 -0.98264623 71
7.0775037 -10.881191 -0.62308311 49
7.0203686 -10.862671 -1.1254584 74
7.0191627 -10.922812 -1.1031336 65
7.0737371 -10.920958 -0.95002532 67
7.0867066 -10.913704 -0.79823506 52
7.0905294 -10.891709 -0.64781511 48
7.0000052 -10.990695 -0.31999132 1
7.068996 -10.887723 -0.93283689 58
7.0361724 -10.888672 -0.71455741 56
7.04249 -10.870065 -0.57113075 60
7.0332842 -10.871861 -0.42550063 75
7.0812936 -10.976053 -1.1197225 53
6.9995713 -10.960751 -0.99536729 61
7.0794816 -10.962866 -0.80756748 59.5
7.0681744 -10.965752 -0.61945856 58
7.0452123 -10.947909 -0.49465331 58
6.994523 -10.962988 -0.36407432 16
7.0022473 -10.859932 -1.0535587 58
7.066699 -10.865677 -0.73329383 74.5
7.0501261 -10.874839 -0.30130449 60
7.1431589 -10.88215 -1.19675 42
7.0256252 -10.992258 -1.0434155 50
7.1016707 -10.980309 -0.8560425 66.5
7.1031866 -10.916254 -0.68047452 170
7.0972242 -10.890875 -0.4525716 87.666664
7.0197625 -10.973905 -0.34914526 31
7.0490665 -10.98446 -1.1092538 57.5
7.0939078 -10.969304 -0.93282634 69
7.0807104 -10.962973 -0.71505737 128
7.0886836 -10.90806 -0.50536454 61
7.0531559 -10.93408 -0.36879218 59.5
7.086791 -10.987282 -0.64984965 147.33333
7.0680065 -10.961939 -0.45458773 56
7.0085497 -10.857903 -1.0248678 26
7.0666451 -10.924181 -1.0727758 53.5
7.0549889 -10.915771 -0.95065647 51.5
7.0507584 -10.923272 -0.81468159 39.333332
7.033289 -10.934698 -0.68531817 55
7.0688438 -10.908119 -0.47306991 86.14286
7.0675383 -10.869967 -0.34512013 63.5
7.0314722 -10.931774 -1.096684 21
7.1134944 -10.881097 -0.97157562 107
7.0303707 -10.928121 -0.9766199 19
7.0117869 -10.918516 -0.7735098 18.25
7.0079503 -10.891178 -0.40176684 31.333334
7.0345669 -10.87542 -1.0159661 14
7.0138392 -10.865273 -0.88077867 12
7.0239277 -10.859496 -0.68512589 15.5
7.1258593 -10.931751 -1.1417159 41.666668
7.1239853 -10.927647 -0.94053465 50
7.1092019 -10.898429 -0.71967834 195.66667
7.1149392 -10.909268 -0.54394048 106.75
7.1042948 -11.010925 -0.40546948 20
7.0859475 -10.985518 -0.36185569 63
7.1109037 -10.958906 -1.1467396 21.666666
7.0816226 -10.925422 -0.94116634 17.5
7.04562 -10.897958 -0.69988698 255
7.075819 -10.939614 -0.52407444 147.71428
7.0705395 -10.959105 -0.36998022 61
7.1024714 -11.009935 -0.93053198 5
7.0972033 -10.976047 -0.77185965 105
7.098547 -10.974457 -0.56166828 129.66667
7.0859957 -10.967199 -0.3925133 19
7.0476294 -10.891329 -0.85020977 5
7.0962715 -10.911187 -0.68566269 255
7.0991049 -10.961553 -0.58081114 18
7.0827436 -10.866489 -0.55461466 12
7.0926151 -10.955607 -0.46615511 45.75
7.0785627 -11.002275 -0.6746158 7
7.0779076 -10.93542 -0.70598447 12.75
7.0122957 -10.876231 -0.689044 3
7.0870557 -10.943274 -0.52633506 2
7.0094047 -10.869823 -0.57066721 2.333333
7.0844769 -10.880905 -0.41648227 2.5
7.0693297 -10.878063 -0.60938048 14.5
7.0600576 -10.873951 -0.45227692 0.5
7.0059872 -10.988569 -0.818892 255
7.04879 -10.965883 -0.76497746 255
7.0777788 -10.999918 -0.49414474 73
7.0236712 -10.90782 -1.0219872 70
7.0356236 -10.899257 -1.1193442 80
7.0037956 -10.904741 -1.0158662 34
7.0208449 -10.904871 -1.2288396 69
7.038157 -10.886961 -0.62372547 86
7.0715537 -10.949422 -1.1225026 70
7.0621243 -10.905925 -1.2383358 76
7.0519094 -10.901248 -1.0467714 79
7.0813589 -10.942476 -1.0893233 70
7.1172218 -10.908073 -0.54532433 50
7.1191154 -10.921766 -0.72257721 185
7.0405955 -10.914684 -1.1672394 67
7.1025219 -10.887369 -0.99226564 53
7.110383 -10.914233 -0.66643435 255
7.1222334 -10.884395 -1.1561031 50
7.1215148 -10.908289 -1.0075499 55
7.1088881 -10.906147 -0.78729045 56
7.0984507 -10.887547 -0.85283571 57.5
7.139153 -10.887589 -0.47027969 44
7.1297188 -10.910509 -0.94195569 57
7.1205049 -10.893318 -0.75962597 54.5
7.1119299 -10.876199 -0.57868081 57
7.1191134 -10.912743 -1.1432863 59
7.1116619 -10.898268 -1.0263227 72
7.1099954 -10.869672 -0.85034287 61
7.1349525 -10.911684 -1.3100015 19
7.1442475 -10.880333 -1.1385398 32.5
7.1378536 -10.903109 -0.97852707 44
7.1436853 -10.883284 -0.7579447 80
7.132957 -10.871933 -0.54366797 52
7.1331005 -10.918795 -1.259889 8
7.1455803 -10.884417 -1.0996065 31.5
7.0757837 -10.932031 -1.0802627 12.5
7.1298914 -10.908486 -0.821356 50
7.018074 -10.864023 -1.0986006 7
7.039433 -10.908478 -1.113632 7.5
7.0396938 -10.91181 -0.80726755 22
7.065002 -10.884161 -0.64856386 82.5
7.0897393 -10.867498 -1.1670287 12
7.0730906 -10.902641 -0.96652508 15.666667
7.0721331 -10.898695 -0.7621001 18.5
7.103704 -10.875716 -0.39476389 53
7.038559 -10.864429 -1.062083 2
7.0165591 -10.863023 -0.83947903 9
7.0002956 -10.863727 -0.95714658 3.5
7.0136886 -10.860576 -0.69095725 14
7.1062202 -10.892108 -1.039624 16.5
7.117115 -10.891741 -0.86217821 38
7.0984535 -10.891379 -0.65992278 19
7.086586 -10.884331 -0.4572331 46
7.1062698 -10.885828 -0.42619345 113
7.1215496 -10.966735 -0.40512243 72.333336
7.0711403 -10.867529 -0.91555053 19.4
7.1108637 -10.883856 -0.70555729 87
7.0945554 -10.884178 -0.48924083 78.5
7.107636 -10.870066 -0.36434481 41
7.0048876 -10.882681 -0.77818865 21
7.0528355 -10.881083 -0.84345919 25
7.0111814 -10.875216 -0.63749659 68
7.0088534 -10.8779 -0.70724726 43
7.1143961 -10.94368 -0.70599878 3
7.0232153 -10.867035 -0.4986304 49.333332
7.1190786 -10.965505 -0.50050277 0.66666698
7.0861897 -11.005134 -0.98444742 20.25
7.0794597 -10.999786 -0.63416666 88.916664
7.1158533 -10.983907 -0.87099361 2.5
7.111402 -10.97704 -0.52041227 88.916664
7.0758371 -10.891298 -0.99427456 9.625
7.0575838 -10.98846 -0.65331095 52.266666
7.0594134 -10.985072 -0.30268237 57.333332
6.9892669 -10.940366 -0.39644822 33
7.1105165 -10.921309 -0.49021655 13
7.0308628 -10.942137 -0.7211054 5.5
7.0552902 -10.979452 -0.74063224 255
6.9969368 -10.97051 -0.51808262 255
7.0015907 -10.872952 -0.33135802 21
7.0281181 -10.995537 -1.283145 11
7.1143837 -10.971348 -0.9858433 17.5
7.0890732 -10.946522 -1.058358 18.5
7.0255547 -10.876583 -0.85046124 17
7.1138878 -10.950481 -0.77076828 9
7.0673714 -10.983063 -1.103175 13
7.0537567 -10.981228 -1.166436 7
7.0466728 -10.965874 -1.2269012 5.5
7.007309 -10.966717 -0.62191236 255
7.0338669 -10.954514 -1.0368109 27
7.0319405 -10.896755 -0.74796814 26
7.0207787 -10.888054 -1.3115976 14
7.0327606 -10.99118 -0.31718493 38
7.0146923 -10.87067 -0.52894855 30
7.0481339 -10.956467 -0.33975434 22
7.0020313 -10.96133 -1.0834374 33
7.027071 -10.883488 -0.54780722 32
6.992672 -10.937775 -0.37293732 23
6.9861794 -10.968845 -0.63117945 255
7.034956 -10.992107 -0.39754486 32
7.0515308 -10.908627 -1.3035699 15
7.0299225 -10.881416 -1.2789055 31
7.011879 -10.92149 -0.8113656 255
6.9861526 -10.993824 -0.6217562 255
6.9950714 -10.939915 -1.3054606 2.5
7.0669422 -10.878464 -0.64101893 255
7.068819 -10.990395 -1.213053 4
7.0344296 -10.939369 -0.68196189 255
7.0088806 -10.967945 -1.1751163 3.5
6.9878311 -10.953274 -1.0917394 36
7.0381165 -11.001652 -0.7574724 255
6.9962826 -10.94059 -1.2366625 60
7.0153828 -10.883709 -0.44023335 31
7.0247402 -10.961628 -0.71394968 255
7.0230293 -10.948639 -1.0801334 28
6.9860821 -10.963966 -0.58559024 255
7.0719471 -10.971607 -1.0498043 17
7.0105171 -10.966454 -0.75758606 255
7.1213131 -10.942074 -0.60944021 136.5
7.0240116 -10.984707 -1.1336784 28
7.1022549 -10.96339 -0.6991061 252
7.0024662 -10.960167 -0.69965458 255
7.0129452 -10.992043 -0.60088801 42
7.0208302 -10.962128 -1.1999383 32
7.0406075 -10.985256 -1.2762753 4
7.1039028 -10.933468 -0.63506866 246.5
7.0692692 -10.998947 -1.1095316 7
6.9897327 -10.976974 -1.0944281 51
7.0096226 -10.969173 -1.1579038 61
7.0230141 -10.986988 -1.1242558 48
6.9873848 -10.954838 -0.58780336 81
7.0068169 -10.986626 -1.058069 50
7.021265 -10.987034 -1.2821908 18
6.9979973 -10.90509 -0.95965874 13.5
7.0064545 -10.99453 -1.061633 14
7.0196934 -10.993576 -0.99528718 32
6.9976826 -10.980995 -1.3003924 7
7.0523205 -10.967274 -0.75654566 255
6.9891949 -10.96431 -0.89767206 61
6.9986401 -10.979973 -0.65155017 255
7.0012798 -10.994804 -0.66416728 255
7.0069389 -10.979156 -1.1970999 17
7.0105095 -10.97562 -1.1673748 18
7.0380936 -10.948971 -0.50500917 31
7.0252304 -10.998001 -0.49293828 39
7.0212135 -10.966408 -0.43879402 28
7.0214252 -10.894321 -0.66983449 255
7.0392742 -10.890007 -1.2458193 48
7.0370808 -10.913494 -0.82078421 255
7.0103645 -10.950157 -0.54022682 50
7.0212822 -10.989216 -0.51850235 44
7.0181026 -10.935871 -0.64050078 255
6.9998779 -10.976475 -1.1047757 56
7.0017319 -10.964439 -1.2714195 59
7.0071468 -10.929611 -0.58030212 64
6.9967976 -10.916897 -0.49120557 64
7.0185375 -10.944233 -0.76576936 255
6.9963951 -10.906437 -0.60936868 255
7.002306 -10.931129 -0.48783004 65
6.9956932 -10.934303 -1.2126515 21
7.0004692 -10.923008 -1.008835 55
6.9984074 -10.935833 -0.75455475 255
7.0152416 -10.977352 -1.2550881 20
6.9990921 -10.947346 -1.1735462 52
7.0054455 -10.928806 -0.52044487 55
7.0329781 -10.987331 -1.1802311 35
7.0018845 -10.969017 -0.73150408 255
7.027317 -10.987263 -1.2180026 27
7.0077496 -10.962688 -1.1090494 53
7.1141968 -10.914494 -0.95068324 41.5
7.0364094 -10.978462 -0.58769608 27
7.0100517 -10.992531 -1.2556107 24
7.0267811 -10.961414 -1.1379499 35
7.0139446 -10.981384 -0.82518375 255
7.0199318 -10.922955 -0.71096325 255
6.9895744 -10.983986 -1.0197197 60
6.9919624 -10.985226 -0.34343696 57
7.0290623 -10.923203 -1.1182556 13
7.05336 -10.950508 -1.1609597 37
7.0476456 -10.968967 -0.6762051 255
7.0131721 -10.927906 -0.99823868 22
7.0079012 -10.921593 -1.1403279 65
7.1191034 -10.924053 -0.52860546 255
7.0185227 -10.977856 -1.1786783 11
7.0496902 -10.958153 -1.0743182 82
6.9958849 -10.914436 -0.98925579 80
7.0197973 -10.998695 -0.906501 255
7.043375 -10.904346 -1.1476438 52
7.0489559 -10.900372 -1.0242937 77
7.0665884 -10.963753 -1.0950856 69
7.03264 -10.950455 -0.42740107 75
7.0083227 -10.86684 -0.5663808 255
7.0576148 -10.867302 -1.1913998 65
7.0131121 -10.860462 -0.53522468 96
7.0496016 -10.958069 -0.94652236 78
7.0613503 -10.917896 -0.61456621 255
7.0684438 -10.900745 -0.27260181 61
7.0764599 -10.998928 -1.1466106 16
7.1166544 -10.961246 -0.52617109 255
7.0304341 -10.962788 -0.95333135 60
7.027205 -10.881706 -0.67253739 255
7.0518732 -10.885479 -0.37468487 69
6.9974003 -10.93018 -1.0689995 63
7.0449171 -10.926998 -0.47797945 76
7.0645523 -10.871494 -0.96850514 94
7.0715809 -10.885338 -0.21974215 61
7.0592237 -10.941696 -0.63864386 255
6.9926958 -10.942997 -1.0207062 45.5
6.9887886 -10.941738 -0.44671112 103
7.0380516 -10.914272 -0.59108818 255
7.0200477 -10.886274 -0.59427017 255
7.043169 -10.871778 -1.0184509 67
7.1189575 -10.9282 -0.68011349 255
7.0170169 -10.980234 -1.0522455 32
7.0724034 -10.982271 -0.53007209 255
7.0405478 -10.897694 -0.76109052 255
7.0163388 -10.950438 -1.0618002 57.5
7.0862637 -10.885815 -0.86451757 99
7.0606456 -10.884417 -0.37331924 97
7.0191946 -10.920029 -0.96841961 123
7.0684986 -10.888855 -0.88521785 133
7.054698 -10.880198 -0.41158623 94
7.1091208 -10.879967 -1.1061337 117
7.1336918 -10.874491 -0.6447621 255
7.0437593 -10.94883 -0.70023704 255
7.0635366 -10.936602 -1.0161763 63.75
7.0120564 -10.944378 -0.56189042 255
7.0822182 -10.894934 -0.79855257 255
7.0451946 -10.87141 -0.69914591 101
7.0357642 -10.863174 -0.25549474 94
7.0094743 -10.968601 -0.92718214 107
7.0622568 -10.93605 -1.0282636 74
7.0549307 -10.936459 -0.69272441 255
7.0821247 -10.94244 -1.0641233 44
6.9922161 -10.959908 -0.62912619 255
7.0380654 -10.921835 -1.0557646 89
7.0157986 -10.928186 -0.86850458 83
7.0126653 -10.92996 -0.45408213 255
7.0529079 -10.873709 -0.96630025 89
7.0835576 -10.876682 -1.2142717 43
7.0492582 -10.909304 -0.79888314 81
7.0472021 -10.900631 -0.39193296 152
7.0050383 -10.994652 -1.0528007 86
7.082859 -10.995911 -0.66206241 255
7.0223446 -10.937061 -0.94594979 93
7.0474806 -10.889147 -0.9660086 66.5
7.0373068 -10.881477 -0.55999178 255
7.0321937 -10.89654 -0.58551598 255
7.0096765 -10.960758 -1.1904186 88
7.0223927 -10.955385 -0.79488271 111
7.0340223 -10.945223 -0.40297216 101
7.0431538 -10.923948 -0.94514412 78
7.0063119 -10.923191 -0.53525442 255
7.0582452 -10.907331 -0.84775507 82
7.0692005 -10.912573 -0.449505 87.5
7.0483494 -10.913343 -0.76824492 74
7.0187159 -10.914843 -0.37826285 84
7.0264373 -10.955271 -1.0801343 71.5
7.0364366 -10.942289 -0.69934863 255
7.0439057 -10.929619 -0.98556894 91
7.0017467 -10.918318 -1.2001212 60
7.0351424 -10.901302 -0.82941264 68
7.0086823 -10.90144 -0.44856781 82
7.0422382 -10.896542 -1.0421212 78
7.0699382 -10.891356 -0.67232257 255
7.0332046 -10.939537 -0.45525989 91
7.1193657 -10.943214 -1.1975642 46
7.0930567 -10.887112 -0.82365644 71
7.1143217 -10.890692 -0.45374453 94
7.0412865 -10.870655 -0.43940687 77
7.071672 -10.907152 -1.0250369 72
7.0593128 -10.90432 -0.6595732 255
7.0422425 -10.869196 -0.42597967 68.5
7.1298609 -10.87533 -0.97477591 90.666664
7.0593462 -10.869238 -0.7236222 255
7.132123 -10.924746 -1.1346167 50.5
7.0952845 -10.948618 -0.77952087 63
7.0901551 -11.003397 -1.137049 66.5
7.1113925 -10.972456 -0.58395284 46.75
7.0748367 -10.996565 -0.39670986 80
7.103652 -10.905243 -1.1141062 46
7.0261011 -10.99448 -0.96051323 70
7.0699186 -10.898006 -1.0799745 62
7.039197 -10.893675 -0.52174795 110
7.0860605 -10.890781 -0.33538282 73
7.0725789 -10.867161 -0.48499799 81
7.1138759 -10.945335 -1.0052873 55
7.1274729 -10.932091 -0.63051242 166
7.1211553 -10.897938 -0.63451213 34.25
7.075665 -10.935028 -0.45073718 76
7.0695028 -10.956671 -1.0381585 68
7.122694 -10.943148 -0.6604439 232
7.1180067 -10.933023 -1.0832973 49
7.1018009 -10.935183 -0.70840216 191.5
7.1444907 -10.879213 -1.0324363 25
7.0700569 -10.940556 -0.66252464 255
7.0933166 -10.953138 -1.0540205 70
7.0997334 -10.959352 -0.67675459 255
7.0752378 -10.936041 -1.0835936 51.5
7.1051941 -10.917049 -0.7038334 188
7.0914316 -10.944752 -0.64805442 255
7.0889916 -10.933737 -1.1014771 71
7.1168427 -10.923126 -1.1586823 21
7.1211071 -10.935001 -0.78070778 49.5
7.0351944 -10.934273 -0.95631385 63
7.1028476 -10.939032 -0.91088271 61
7.1019106 -10.940313 -0.90490848 64.5
7.1281891 -10.938229 -0.96009642 28
7.0863619 -10.927004 -0.96207052 60
7.1206784 -10.933918 -1.0566239 50
7.0400167 -10.900585 -1.0985805 56
7.1241937 -10.925844 -1.176643 48.5
7.1120481 -10.926693 -0.8007766 46
7.0987549 -10.974112 -1.1304319 63
7.0906839 -10.951138 -0.81293601 75
7.0882268 -10.930916 -0.43855876 101
7.0679846 -10.88801 -1.0111756 56
7.1024475 -10.987663 -0.94453412 76
7.0745707 -10.992533 -0.58218795 255
7.0288916 -10.955969 -0.84176308 28
7.0017886 -10.971245 -0.4909516 107
7.054637 -10.867428 -0.80955702 130.66667
7.0442004 -10.89076 -0.63615376 255
7.0888186 -10.936586 -1.1629046 54
7.0107541 -10.964804 -1.1579012 43
7.0300064 -10.95664 -0.83743864 67
7.0445876 -10.893676 -0.53597373 161.5
7.0371184 -10.889116 -1.1633279 76
7.0106254 -10.880068 -0.86504269 50
7.074934 -10.86919 -1.0061864 57.333332
7.0818458 -10.871974 -0.71314484 66
7.0552363 -10.876532 -0.41888005 74.5
7.0434203 -10.99958 -0.80551261 155.5
7.0742855 -10.993124 -0.38324657 64.5
7.0621657 -10.913081 -0.92022496 71.25
7.0416865 -10.8611 -0.87465799 57.583336
7.0807238 -10.878748 -0.46832788 68
7.0914326 -10.871017 -0.80567479 162.25
7.0869446 -10.910408 -0.66863465 255
7.0775018 -10.896312 -0.40217185 68
6.9985762 -10.949807 -1.0437026 46.375
7.0954452 -10.901124 -0.39902258 45
7.0525169 -10.999185 -0.92548805 62.75
7.0582085 -10.982203 -0.31104606 25
7.0926247 -10.935469 -1.0771492 43.366665
7.0919032 -10.895985 -0.71867204 54
7.0507002 -10.95255 -0.71169615 255
7.0457301 -10.939064 -0.47156313 63.333332
7.0616951 -11.002617 -1.1714873 50.666668
7.0761409 -11.000683 -0.83257848 157.25
7.0361328 -10.989938 -0.48818427 56
7.0562096 -10.953251 -1.062881 66
7.0347552 -10.925226 -0.72621197 96.666664
7.0459299 -10.8812 -0.51338279 71.5
7.0709958 -11.00538 -0.57038838 125.375
7.0736747 -10.898875 -1.1871446 29.285715
7.0426507 -10.901792 -0.89944732 52.133331
7.0967441 -10.923823 -0.80535567 70
7.0605712 -10.895719 -0.51915801 97.199997
7.0624356 -10.877282 -0.62187362 122.5
7.1114798 -10.90637 -1.0299406 47.166664
7.0723233 -10.893602 -0.64605629 100.91111
7.0614467 -10.885794 -0.33840898 48.799999
7.0880518 -11.005762 -0.99474293 55.083332
7.0670748 -10.991604 -0.62375015 78.533333
7.08529 -10.976986 -0.32880899 33.200001
7.1002975 -10.867296 -0.57447457 100.66666
7.0196438 -10.96932 -1.0576974 52.25
7.085403 -10.87936 -0.821347 49.5
7.0029516 -10.959116 -0.74313712 45.611111
7.0738249 -10.918855 -0.43746969 55.900002
7.0084648 -10.950786 -0.42939386 63.5
7.0242057 -10.983013 -1.1627084 8.3000002
7.1147637 -10.966225 -0.79348874 118.88889
7.0820556 -10.997841 -0.45842028 87.655556
7.0121179 -10.989118 -1.2237203 29.117647
7.0306697 -10.865232 -1.123176 45.75
7.0398455 -10.875562 -0.82840282 85.434532
7.0233536 -10.860092 -0.44533321 56.871754
7.0159616 -10.927282 -1.1989642 22.333334
7.0912638 -10.956998 -0.95258284 61.095238
7.0725031 -10.957012 -0.53719568 73.245712
7.0530281 -11.001431 -1.1500072 40.735714
7.0346413 -10.950513 -0.80628395 91.366753
7.0527191 -11.000587 -0.98788035 57.047009
7.0649128 -10.898526 -0.43118787 90.585716
7.0533495 -10.871351 -1.0416031 18.1
7.0576553 -10.937879 -0.546992 177.5
7.0895443 -10.98795 -1.005109 41.171429
7.0926633 -10.940625 -0.63016468 165.86806
7.0737548 -10.940551 -0.36432511 73.759743
7.0676708 -10.908425 -0.69352251 98.084427
7.0663633 -10.902272 -0.48071498 49.353207
7.0840592 -10.897153 -0.60002345 68.870995
7.0872288 -10.885497 -0.41559178 11.5
7.0534449 -10.890031 -0.73449886 0.66666698
7.0504303 -10.955667 -0.74173576 6
7.0935898 -10.914569 -0.76353323 5
7.0189018 -10.900995 -0.82743651 3
7.0724564 -10.896973 -0.83367902 32
7.0124512 -10.86702 -0.97182822 16
7.0763016 -11.005726 -0.8501538 23
6.9971848 -10.935207 -0.39273953 37
7.0215225 -10.962517 -0.8523193 16
7.002327 -10.919121 -0.64507127 85
7.100872 -10.907444 -0.61769116 142.5
7.0568542 -10.891724 -0.76579005 255
6.9988365 -10.925419 -0.63547307 28
7.003006 -10.92421 -1.2842194 16
6.9986229 -10.954044 -1.2944423 7
7.1404915 -10.897934 -0.93401372 229
7.0845337 -10.935154 -0.74860978 255
6.995182 -10.946796 -1.3794158 26
7.1198692 -10.911777 -1.3407016 6
7.0426369 -10.991573 -1.2911633 52
7.031004 -10.938812 -1.4369738 48
7.0216131 -10.982944 -0.78869808 255
7.0060167 -10.906754 -1.3961921 59
7.0341816 -10.951145 -0.86186767 255
7.036005 -10.877995 -0.95830113 255
7.0285697 -10.965256 -0.63948643 255
7.0314288 -10.864601 -0.91141576 84
7.0601001 -10.949043 -1.0664446 87
7.0314279 -10.922752 -0.38638836 62
7.1002274 -10.883865 -1.1028531 83
7.03514 -10.885525 -0.44250613 101
7.08463 -10.962448 -1.2492181 52
7.0463095 -10.927788 -0.60971415 255
7.0624075 -10.943329 -1.0642052 90
7.0201845 -10.933163 -1.3061942 13.5
7.0502119 -10.947838 -0.97041118 83
7.0247746 -10.974529 -0.42588636 69
7.1036148 -10.995611 -0.81594586 255
7.04988 -10.913618 -1.1116596 98
7.0408053 -10.906334 -0.5685122 94
7.1065345 -10.894093 -1.2286531 82
7.0930033 -10.99707 -1.2509425 45.5
7.0894485 -10.934879 -1.0198156 88
7.0980749 -10.983488 -1.1664894 93
7.0622172 -10.980133 -0.70311719 255
7.1275845 -10.946098 -1.3483639 48
7.0535898 -10.90288 -0.89347219 255
7.0746598 -10.904644 -1.0730019 118
7.0802689 -10.894789 -0.62531894 100
7.0562391 -10.911283 -1.0903088 89
7.0481405 -10.895517 -0.87758768 84
7.0550079 -10.901213 -0.47606701 90
7.0177107 -10.90414 -0.65073359 255
7.0699453 -10.93326 -1.1260688 85
7.0827098 -10.927986 -0.73926806 255
7.089345 -10.979883 -1.2840167 59
7.0865765 -10.974182 -0.70581925 71.5
7.0927768 -10.951506 -0.59411645 83
7.0754423 -10.920368 -1.1594983 87
7.1109629 -10.927061 -0.78256565 255
7.101943 -10.953054 -1.1906067 79
7.122581 -10.94389 -0.81797528 76
7.0745459 -10.933977 -0.44156626 70
7.0955544 -10.966873 -0.58357692 88
7.0185957 -10.916172 -0.70418584 255
7.0942936 -10.946083 -0.94605124 78
7.094152 -10.931837 -0.57915676 70
7.0730367 -10.940342 -0.48124677 70
7.0536876 -10.894224 -1.1202402 64
7.0938973 -10.897839 -0.75962853 255
7.0023856 -10.881933 -1.0574297 61
6.9980793 -10.878342 -0.69402266 255
7.0234065 -10.861673 -0.33570647 64
7.0992212 -10.951611 -0.89257485 166.5
7.0963368 -10.94599 -0.35148895 51
7.0195794 -10.890457 -1.1523777 65
7.0293822 -10.886187 -0.79568869 255
7.0554523 -10.90089 -1.0960212 63.5
7.0626521 -10.904661 -0.7408464 255
7.0610442 -10.884123 -0.38446382 59
7.0588589 -10.910599 -1.082462 63
7.0835452 -10.910742 -0.72778171 255
7.0719466 -10.89859 -0.94835263 62
7.0460639 -10.904678 -0.59039491 168
7.0091639 -10.94239 -0.98438084 64.25
7.0945282 -10.93965 -0.63470101 203
7.0562325 -10.865313 -1.1690222 54
7.0539284 -10.95779 -1.080121 81
7.046155 -10.958073 -0.72489274 255
7.0486264 -10.904602 -0.88649052 75
7.0533175 -10.871107 -0.5336892 58.5
7.0124273 -10.875023 -1.087002 72.5
7.0261364 -10.870064 -0.38429546 74.5
7.1018004 -10.961874 -0.65791571 49.166668
7.1059432 -10.942762 -0.90846306 55
7.050015 -10.946476 -1.2205521 33.200001
7.0960684 -10.922535 -0.88902456 54.5
7.0714993 -10.946556 -0.56720477 181
7.051784 -10.933975 -1.1019081 76.5
7.0421882 -10.925323 -0.61558789 162.5
7.0856543 -10.92635 -0.7356075 255
7.0932393 -10.971608 -0.97933137 58
7.1062131 -10.969064 -0.35845247 56
7.1123362 -10.96653 -1.0004792 66.25
7.1310205 -10.913425 -0.57601696 58
7.0727768 -10.965237 -0.58144504 255
7.0006814 -10.884207 -1.0514858 75
7.0003176 -10.881558 -0.77562612 255
7.0011826 -10.874879 -0.50077385 76
7.0535583 -10.87031 -1.0087709 61.5
7.0309896 -10.876674 -0.62914211 224.5
7.0259471 -10.867191 -0.3750076 65
7.0049253 -10.988145 -1.1098821 36.75
7.077013 -10.919478 -1.0176704 68
7.027832 -10.887102 -0.67399919 58.5
7.017961 -10.911784 -0.79012191 255
7.0774293 -10.865899 -1.0617145 58.5
7.0572891 -10.865404 -0.61042297 153.75
7.0883088 -10.885737 -1.0041492 55.25
7.0723414 -10.871385 -0.56414163 121.5
7.1050501 -10.871249 -1.1134568 52.25
7.0745769 -10.901167 -0.68884349 68.083328
7.1181417 -10.8792 -0.5197987 59.333332
7.1144547 -10.940452 -1.3166575 32.857143
7.1126766 -10.928628 -1.0228488 46
7.0863786 -10.932253 -0.6330303 134.125
7.0876956 -10.874344 -1.1416448 50.625
7.0919256 -10.88798 -0.75841451 107.375
7.0762634 -10.884926 -0.47456065 60.75
7.0924749 -10.8931 -0.54892111 75.833336
7.0854368 -10.926225 -0.72800136 255
7.0890851 -10.885672 -1.0769136 46.5
7.0658989 -10.88361 -0.67252058 111.52778
7.0502291 -10.896933 -0.35125101 55
7.1126671 -10.998886 -1.0762782 46.744446
7.0394626 -10.881609 -0.72282004 74.416664
7.075345 -10.90457 -0.42469049 59
7.1354356 -10.880928 -0.84730643 52.625
7.1066175 -10.928805 -1.0105451 52.633335
7.1037059 -10.9281 -0.60891664 144.90001
7.1173091 -10.942211 -0.32703868 44.5
7.0858622 -10.905933 -1.2140725 19.958334
7.1364789 -10.909348 -0.54925317 64
7.0944076 -10.911269 -1.1673887 19.333334
7.123785 -10.899083 -0.60185373 71.189285
7.1122165 -10.881662 -1.2143015 7
7.0886045 -10.953596 -1.0297985 16.822224
7.1101556 -10.899405 -0.5865432 98.087799
7.0470219 -10.935988 -0.74750477 61
7.0841141 -10.915369 -0.35659456 35
7.0483918 -10.872532 -1.138768 13.712681
7.1223922 -10.950258 -1.1373068 11.433332
7.10607 -10.873528 -0.70360219 93.617302
7.0721889 -10.909748 -0.88628024 21
7.1125493 -10.933333 -1.212685 5.878788
7.001471 -10.935352 -1.1561289 5.096765
7.0680103 -10.863161 -0.9398675 12.5
7.0958052 -10.914052 -1.2247431 4.5740738
7.1276455 -10.908515 -0.49289826 185.31348
7.0268159 -10.874662 -0.77527082 61
7.0369768 -10.890258 -0.88162863 14.5
7.0301638 -10.871058 -0.60156769 68.75
7.0944958 -10.894899 -0.59948862 118.71693
7.0928764 -10.892397 -0.39765504 120.625
