# .PCD v0.7 - Point Cloud Data file format
VERSION 0.7
FIELDS x y z intensity
SIZE 4 4 4 4
TYPE F F F F
COUNT 1 1 1 1
WIDTH 1268
HEIGHT 1
VIEWPOINT 0 0 0 1 0 0 0
POINTS 1268
DATA ascii
11.976301 -20.915806 -0.97368765 7
12.256691 -21.181854 -0.78851509 8
12.087345 -21.14168 -0.75938368 19
12.027531 -21.002802 -0.7357316 12
12.040829 -21.036047 -0.86655509 18.5
12.230356 -21.218945 -0.92155755 5
12.114733 -21.130781 -0.8970691 17
11.986605 -20.957615 -0.86278355 11.5
12.110199 -21.179449 -0.87485373 17
11.97797 -21.010361 -0.84461462 12.5
12.070467 -21.208889 -0.93920362 13
12.052362 -20.838348 -0.90746915 4
12.074064 -21.316744 -0.82898271 11.666667
11.9279 -21.063469 -0.79899347 8
11.935114 -21.108322 -1.1213627 4
11.995697 -21.152311 -0.96857464 17.333334
12.067884 -21.14502 -0.90682435 27.5
11.907187 -21.000799 -0.86602807 17
12.063383 -20.98094 -1.1350145 10.5
12.14048 -21.139982 -1.1640224 2
11.990242 -20.8874 -1.1151071 15
11.997648 -21.060244 -1.0794195 22
12.053587 -21.227272 -1.1148753 25
11.94483 -21.128834 -1.0943666 22
12.274927 -21.255997 -1.1440474 3
12.035288 -21.177309 -1.1026424 21.5
11.920065 -20.987377 -1.0687462 12
12.136793 -21.190992 -0.91854274 29
12.026804 -21.096968 -0.88999879 29
12.258791 -21.222687 -0.90534484 2
12.050753 -21.024445 -0.84850395 22.5
11.973967 -20.959068 -1.1657426 5
12.104177 -21.153469 -0.89300668 26.5
11.955912 -20.999035 -0.85028398 20
12.062117 -21.100842 -0.85970485 19.333334
12.224337 -21.177979 -1.0150512 12
12.064714 -21.130135 -0.98062313 29
12.019861 -20.785765 -0.92733276 6
12.454487 -21.014565 -1.1150655 2
12.076233 -21.066504 -1.0570549 20.5
11.982403 -20.862391 -1.016395 12
12.221762 -21.260818 -0.87869394 2
11.965105 -21.010883 -0.80900848 21
12.091087 -21.115557 -0.71758854 18
12.019295 -20.987083 -0.69163668 8
12.159006 -21.123884 -0.77261746 16
12.006231 -20.967926 -0.74095595 17
12.082548 -21.153868 -0.98418713 26.5
11.907759 -21.018263 -0.95178366 20
12.039122 -21.120375 -0.91076338 25
11.977312 -20.784113 -0.87633431 2
11.951023 -21.039852 -1.1607349 4
12.073437 -21.132959 -0.73287523 23
12.178354 -21.212727 -0.88211429 22
12.049154 -21.133656 -0.86053836 28
11.999754 -20.785604 -0.82869804 4
12.138632 -21.169971 -0.90604556 31
11.966055 -21.031223 -0.87915909 25
12.112577 -21.116272 -1.1651596 19.5
11.975397 -20.945074 -1.1398028 19
12.077845 -21.178434 -1.1967413 7.5
11.968317 -20.983635 -1.1693251 15
12.088324 -21.16094 -0.87923062 17.5
11.947241 -20.898071 -0.83862984 14
12.226358 -21.174976 -1.1487393 5
12.058615 -21.130529 -1.1240687 21
12.141846 -21.18186 -0.8131969 25
11.99091 -21.025026 -0.78426671 26
11.96834 -21.074059 -1.0550964 24
11.954012 -20.890785 -1.0427606 11
12.10602 -21.176428 -0.93807209 25
11.960585 -20.917917 -0.89946163 13.5
12.139677 -21.131443 -1.0597084 20.5
11.991919 -20.876223 -1.0176518 10
12.250704 -21.190456 -0.98277426 5
12.007395 -21.021383 -0.9373889 20.333334
11.978567 -21.096975 -1.0486817 22
12.091181 -21.211374 -0.98562288 22
11.976179 -20.827528 -0.94098186 4
11.901194 -21.091026 -0.95186663 24
11.942049 -20.980003 -0.65274584 1
12.032932 -21.122408 -0.78016686 25.5
11.955067 -20.897947 -0.75599933 12
11.995167 -21.015032 -0.71696126 5
12.135878 -21.176897 -0.91992903 22.5
11.952711 -21.049507 -0.8875699 24
11.953337 -20.852953 -0.8730135 6
12.11418 -21.181631 -1.1226753 19
11.968397 -21.119677 -1.0958709 26
11.914206 -20.974991 -1.0747293 14
12.119621 -21.126339 -0.86034226 21
11.986176 -20.958954 -0.81846452 16
12.193459 -21.006329 -0.95873237 23
12.008293 -20.883945 -0.91791749 18
12.174728 -21.076904 -0.75296676 19
12.04137 -20.904671 -0.72309864 16.5
12.139963 -21.207659 -0.85884893 17
12.021341 -21.122406 -0.8333391 18
11.952799 -20.991888 -0.81038415 12
11.98497 -21.157427 -0.83508241 14.333333
12.052759 -21.096388 -0.74898863 7
12.135216 -21.032782 -1.0531396 17
11.977966 -20.8853 -1.0251654 11.5
12.130205 -21.005356 -0.91049564 8.5
11.971502 -20.764496 -0.87007701 6
12.237574 -21.07844 -0.97548735 11
11.977106 -20.926535 -0.93871462 15
12.127323 -21.185661 -0.98638511 17
11.957073 -21.049713 -0.96081614 13
12.112457 -21.224932 -0.91541135 23
11.944214 -21.08536 -0.89627397 16.5
12.105545 -21.249334 -0.88701749 17
11.955608 -21.094027 -0.8692944 13
12.078102 -21.164379 -0.70327497 5.666667
12.053127 -21.072268 -1.0784729 16.5
12.11039 -21.128759 -0.97042513 26
11.931187 -20.998394 -0.94633675 19
12.396059 -21.091646 -1.0328125 2
12.006685 -20.951599 -0.99712408 20
12.063126 -21.254686 -0.9260689 30
11.949921 -21.060322 -0.91911197 16
11.887075 -21.081015 -1.078739 7
11.938274 -21.197256 -0.84061432 13.5
12.020636 -21.230749 -0.7813468 23
11.989088 -21.062906 -0.76181269 13
12.204849 -21.309168 -1.0113797 10
12.052971 -21.250946 -0.97717333 32
11.968155 -20.937838 -0.92210484 6
12.04175 -20.958797 -0.88964677 20.333334
11.953348 -20.874022 -1.0119603 21.333334
12.06426 -21.076326 -1.0014638 25.5
11.890108 -20.939194 -0.97130859 19
12.192322 -21.321495 -1.0392083 11
11.91563 -21.177679 -0.99940002 24
11.975502 -20.926849 -0.99173248 4
12.051929 -21.174923 -0.71855187 12.333333
12.12797 -21.076685 -1.0133772 20
11.937983 -20.950272 -1.0025761 23
12.007338 -21.042555 -0.70961571 16.5
11.973364 -21.22612 -0.96041441 24
11.913065 -21.114325 -0.89192474 17
12.058853 -21.039192 -0.79517221 24
11.92984 -20.85817 -0.77649188 19.5
12.07049 -20.923092 -1.0113121 19.5
12.050837 -20.935522 -1.1265479 19
11.918898 -20.757915 -1.1093203 17
12.177267 -21.184196 -0.93174756 14
11.969381 -20.978855 -0.89582264 21.333334
12.119783 -21.142521 -0.82155418 22
11.951944 -20.902435 -0.78133821 19
12.103325 -21.132105 -1.03931 26
11.927341 -20.998989 -1.0035167 24
12.079325 -21.222338 -0.98046446 26
11.937365 -21.057961 -0.95142698 19.5
12.004316 -21.065512 -0.68934727 3
12.170534 -21.125641 -0.75630295 12
11.981421 -20.904146 -0.73064864 8
12.008093 -21.032749 -0.70628166 4
12.118994 -21.147215 -0.99876809 23
11.940744 -21.015404 -0.97909808 22.5
12.020367 -20.999195 -0.73329544 12
12.104622 -21.066349 -0.69961596 5
12.004604 -20.961779 -0.68686724 2
12.075178 -21.127497 -0.81264138 22
11.966421 -21.031008 -0.80019593 17
11.957499 -20.842974 -0.79312253 4
12.129452 -21.101616 -0.81681299 19
12.008526 -21.015785 -0.80686522 23
11.934486 -20.887119 -0.79941988 14
12.104239 -21.196384 -0.81856334 21
11.989569 -21.104982 -0.80667484 21
11.957243 -20.938433 -0.79908931 12
11.980217 -21.156263 -1.1269121 20
11.933357 -21.00264 -1.1126304 18
12.059757 -21.083206 -0.99246049 26
11.906212 -20.930748 -0.959337 17
11.964142 -21.055687 -0.92797089 25
12.024475 -20.705599 -0.91335201 2
12.126375 -21.228769 -0.97273946 22
11.950239 -21.095287 -0.94750142 24.5
11.977377 -21.289177 -1.2092966 3
11.928968 -21.139278 -1.196566 5
12.103481 -21.20797 -1.035144 13
11.955292 -21.054741 -1.0068294 12.5
12.124456 -21.174913 -0.98802805 14
11.952631 -21.043457 -0.95870161 13.5
12.144007 -21.083952 -1.1603411 12
11.972002 -20.95293 -1.1319979 11.5
12.149672 -21.169945 -0.8263979 16
11.994852 -21.025204 -0.79989338 13
12.108505 -21.096334 -0.87767237 15
11.974339 -20.933224 -0.845689 9
11.98912 -21.172178 -1.0463834 5
12.184486 -21.143837 -0.9005785 16
12.068047 -21.059116 -0.89271736 27
11.968327 -20.76483 -0.8844471 8
12.083496 -21.285477 -0.82564688 15.333333
11.898712 -21.075785 -0.82083845 9
12.174721 -21.31205 -0.94512939 16
12.041763 -21.245424 -0.93625259 30
11.926163 -21.16288 -0.92833424 23
12.00169 -20.899197 -0.93162537 5
12.092602 -21.134193 -0.99780262 27
11.962139 -20.873171 -0.98921859 12.5
12.149441 -21.014544 -0.92213082 16.5
11.964439 -20.906347 -0.91034961 26
12.052675 -21.221809 -0.87919831 25.666666
12.16856 -21.1476 -0.75871038 15.5
11.979015 -21.049423 -0.75452614 23
11.951521 -20.885778 -0.75679922 14
12.119421 -21.046516 -0.87734473 26.5
11.961834 -20.725315 -0.86233246 7
11.945332 -20.934284 -0.86350358 26
12.114183 -21.310486 -0.96970379 29
11.973001 -21.167568 -0.95377266 24
12.517151 -21.019854 -1.120784 2.5
12.125179 -21.043507 -1.1160913 19
11.975355 -20.913824 -1.123107 14
12.167446 -21.023636 -0.9573645 19
11.950781 -20.875513 -0.97091192 18
12.206916 -20.979816 -1.0595173 20
12.034425 -20.977938 -1.0523471 32
12.197266 -21.257118 -1.0683539 19
11.938654 -21.163017 -1.0389063 19
12.011867 -21.305397 -0.91597533 33
12.147425 -20.990925 -1.0244886 31
11.955505 -20.736794 -1.0043317 14
12.108983 -20.942715 -1.3230674 17.5
11.96061 -20.828789 -1.2937219 12
12.123567 -20.939205 -0.76855475 9
11.973859 -20.931622 -0.75668722 12
11.935477 -20.793602 -0.75209624 8
12.263813 -21.002823 -0.71540803 5
12.005611 -20.85042 -0.68400067 7
12.200109 -21.262566 -1.0012145 13
11.998602 -21.130592 -0.97475237 22
12.023322 -20.998035 -0.74712569 21.5
11.971524 -20.77173 -0.73930508 1
11.905958 -20.911972 -1.1700985 5.5
12.019229 -21.21394 -0.80607241 14.333333
12.060911 -21.043633 -1.0864848 17
11.961828 -20.986935 -1.0759472 21
11.906153 -20.873371 -1.069404 11
12.130807 -21.126806 -0.8987143 19
11.967246 -20.970089 -0.87005019 23.5
12.181128 -21.175211 -0.87309653 20.5
12.031548 -21.098423 -0.85386616 30
12.152723 -21.060442 -0.90072769 19
11.894403 -20.857302 -0.86164421 15
12.228407 -20.90197 -1.1839662 14
12.09502 -20.901415 -1.1715479 5
12.049498 -21.055832 -0.9928996 19.200001
12.044536 -20.921062 -0.78990853 30.25
11.956839 -20.862915 -0.97131324 25.75
12.114925 -21.268538 -1.0889022 9
12.029753 -21.109011 -1.0796373 15.5
12.159732 -21.170036 -0.81063497 29
11.991246 -21.031355 -0.7983278 23.666666
12.209366 -21.207619 -0.88705415 16
11.996888 -21.171156 -1.0129623 21
12.107165 -20.922932 -0.65566957 9
11.999194 -21.205938 -0.95566517 10
12.276579 -21.218142 -1.0334395 0
12.024237 -21.153185 -1.0023907 14.5
12.187617 -21.142693 -0.99450582 15.5
11.97073 -21.018431 -0.97199482 3
12.073476 -21.006178 -1.0073723 17.5
11.91125 -20.892683 -0.98290431 12.5
12.248157 -21.05447 -0.79355741 6
12.265584 -21.179331 -0.84794855 1
12.103714 -21.082348 -0.84515142 24
12.133517 -20.959166 -1.0923905 6.5
12.102317 -21.021545 -1.0884528 19
12.087611 -21.268873 -0.75546199 8
12.353703 -21.0753 -0.81931782 4
12.13623 -21.205748 -0.80068493 18
12.023364 -21.125612 -0.79391527 6
12.109968 -21.046368 -0.91298467 20.5
12.332231 -21.099604 -0.93890703 2
12.114341 -21.035076 -0.91869533 19
12.369095 -20.999886 -0.90534425 7
12.173434 -21.099241 -0.88797116 18.5
11.989038 -20.965158 -0.8761766 12.666667
12.101288 -21.142569 -0.75396383 20
11.989011 -20.960909 -0.7467314 17
12.201868 -20.871542 -0.86720967 16.5
12.493966 -21.060987 -0.85984099 11
12.240636 -21.001951 -0.84931386 26.333334
12.257318 -21.192055 -0.79754651 0
12.11138 -21.214262 -0.77976239 29.5
11.943349 -21.080545 -0.75817025 15.666667
12.283985 -21.085445 -0.68449092 11
12.12817 -21.028034 -0.66402888 9.5
12.102234 -21.088537 -0.66165614 14
12.494374 -20.999821 -1.1089753 25
12.397463 -21.018177 -1.0946764 5
12.165774 -21.157185 -0.99076927 25.75
11.9957 -21.039036 -0.97845209 14
12.196003 -21.141893 -1.0355681 24.5
11.958366 -20.97551 -1.0298671 11
12.054287 -21.166664 -1.0274566 27
12.267881 -21.083208 -1.062351 17
12.109413 -21.043375 -1.0592535 16.5
11.941443 -21.051897 -1.1180563 8.3999996
12.210614 -21.092009 -0.88916087 22
12.352776 -21.05748 -0.89454532 12
12.107753 -21.030945 -0.88943744 28
12.01109 -20.953655 -0.89058685 21.5
12.125263 -21.161173 -0.95333958 13
12.313454 -21.113028 -0.96191216 9
11.992067 -21.074715 -0.95267272 25
12.330346 -21.090139 -1.0453725 22
12.16787 -21.080347 -1.0366039 21.333334
12.357669 -21.098305 -0.92745292 12
12.117526 -21.083504 -0.91522801 18.5
12.281632 -21.069965 -0.75643575 7.5
12.13958 -21.019911 -0.74613559 4
12.33766 -21.092632 -1.0551683 17
12.250304 -21.109325 -1.0510708 6
12.074233 -21.044651 -1.0474988 16
12.182345 -21.187796 -0.97263128 12
11.924361 -21.036386 -0.96678859 15.5
12.334599 -21.067553 -1.0563372 19
12.006081 -20.902246 -1.0400568 13
12.206625 -21.094584 -1.0464221 13
12.037943 -21.025322 -1.0374213 22
12.218196 -21.059679 -0.77247691 13.333333
12.047586 -20.902222 -0.7659533 7
12.1668 -21.177963 -0.80158341 25.333334
11.989975 -21.045263 -0.79540241 14
12.325507 -21.086662 -0.84858215 13
12.096894 -21.099199 -0.83187711 22.6
11.932297 -20.941984 -0.82493794 4
12.439829 -20.985571 -0.85990322 0
12.307244 -21.109545 -0.81459874 18.5
12.134696 -21.077997 -0.80470771 19.333334
12.347324 -21.082302 -1.1079043 24
12.178528 -21.078243 -1.0977668 21.333334
12.3526 -21.023783 -0.800111 20.4
12.166768 -20.854418 -0.78831357 6.5
12.093384 -20.920763 -1.1449425 15.5
12.193708 -21.070108 -0.78088987 3
12.286897 -21.145081 -1.063759 24
12.077284 -21.083656 -1.0551943 13.333333
12.317478 -21.109844 -0.69572079 6
12.092617 -21.151964 -0.68371308 12
12.228602 -20.997089 -0.87136507 21.75
12.091584 -20.906137 -0.86839008 26
12.351414 -21.063686 -0.84936666 0
12.107738 -21.208477 -0.83320928 1.25
12.378965 -21.057678 -0.92448759 19.5
12.175816 -20.996431 -0.90711761 22
11.96434 -20.996086 -0.82627219 0
12.044993 -21.267942 -0.87902391 21
12.216084 -21.090734 -1.0406979 24.333334
12.053555 -21.028299 -1.0289725 16
12.092779 -21.089689 -1.0298327 31
12.282471 -21.058468 -0.71964467 17.5
12.187204 -21.065018 -0.71165836 19
12.104534 -21.038378 -0.70552886 19.5
12.330113 -21.040237 -0.91334057 16.25
12.146946 -20.919226 -0.89869356 5
12.250982 -21.115868 -1.0347846 14.25
12.016496 -21.023752 -1.022054 13
12.243489 -21.101498 -0.71971709 19
12.027575 -20.876099 -0.71210819 12
12.120157 -21.113773 -0.7111569 26
12.010765 -21.236464 -1.0008357 21
12.293482 -21.08917 -0.81677288 0
11.958237 -20.827194 -1.1027117 11.8
12.167763 -21.131683 -0.95624703 7.8666668
12.042944 -20.99419 -0.94945496 13.5
12.461426 -21.032076 -1.0420418 11
12.243486 -21.08713 -1.0191584 18.5
12.125006 -21.024582 -1.0094647 26
12.158209 -21.107594 -0.79962945 17.583332
12.478482 -20.92252 -1.1460519 8
12.365891 -20.708294 -1.1437209 0
12.032586 -21.245827 -0.9399085 20.708332
12.040678 -21.120823 -1.0033118 13.2
11.930906 -20.936684 -1.0035329 1
12.240932 -21.107878 -0.73552531 19
12.05451 -21.104574 -0.7209782 21.666666
12.300966 -21.108059 -1.050665 24
12.12895 -21.075928 -1.0356122 18.5
12.31773 -21.048466 -0.77178317 20
12.172813 -21.013241 -0.75967914 16.5
12.021351 -21.020157 -1.0213133 6
12.106028 -21.225674 -1.0233326 7.5
11.937344 -20.963202 -1.0129809 10.333333
12.30113 -21.092308 -0.77806783 23
12.097777 -21.036489 -0.75493753 29
12.160452 -21.202143 -0.9357478 12
12.05751 -21.20916 -0.92668718 8
11.963085 -21.140001 -0.92235965 3.666667
12.178041 -21.127396 -0.67170209 21.5
12.099408 -21.136505 -0.66516954 22
12.022846 -21.140387 -0.65895385 24
12.119094 -21.128876 -0.79485458 23.5
12.348707 -21.083675 -1.0817287 13.666667
12.240772 -21.177597 -0.93402821 21.25
12.117247 -21.078186 -1.0484096 25.375
12.013451 -21.146984 -0.90750992 22.25
11.899554 -21.057325 -0.89717352 18.5
12.194088 -21.105778 -0.67751074 10.25
11.939072 -21.019569 -0.93551892 12
12.126951 -21.1989 -0.93934292 12.25
12.179167 -21.169537 -0.91974574 25.333334
11.984774 -21.072414 -0.89284045 27
12.246367 -21.007812 -0.92479539 12
12.152225 -20.988384 -0.90403402 14.5
12.153095 -21.073296 -1.0970165 1
12.045645 -20.990734 -1.0838085 3.333333
12.232727 -21.130489 -0.87540388 23.200001
12.041894 -21.067776 -0.84693897 26.5
11.937865 -21.097809 -1.0751662 0
12.138399 -21.277487 -0.87467283 22
12.208478 -21.156757 -0.89068693 18.333334
11.955297 -21.18714 -0.8460899 26.5
12.07875 -21.313953 -1.1474439 0
11.9526 -21.142866 -1.136236 5.4285712
12.16269 -21.116364 -0.83788705 21.975
12.29125 -21.097225 -1.0349541 23
12.088362 -21.019188 -0.99195528 26
12.457236 -20.969215 -0.85230303 14
12.317094 -21.081758 -0.81908721 20.799999
12.1352 -21.017242 -0.77984762 22
12.50846 -21.024467 -1.0627186 8.6000004
12.200285 -21.080463 -0.89219421 23.8125
12.021522 -21.023176 -0.75228202 25
12.150184 -21.142712 -0.96671718 13.208333
11.964089 -20.915083 -1.0567827 7.5
11.933866 -21.089329 -0.82661623 24
12.360746 -21.045948 -1.0078303 13.5
12.105383 -21.103695 -1.056116 15.111112
12.34782 -21.044834 -0.79098469 15
12.24609 -21.103909 -0.76786596 21.25
12.185042 -21.110229 -1.0285286 25.888889
12.425982 -20.985001 -0.88216937 15
12.237974 -21.114151 -0.83222437 22.75
11.992247 -20.901249 -1.1286136 2.8
12.331528 -21.063305 -0.90053856 27
12.205747 -20.989937 -0.86920619 23
12.246754 -21.114058 -0.91026497 21.325001
12.05902 -21.151674 -0.87449872 27.625
11.95231 -21.077564 -0.8595252 23.25
12.265991 -21.176519 -1.1149566 21.5625
12.084929 -21.157005 -1.0805234 27.450001
11.997638 -21.047768 -1.0723438 17
12.263762 -21.105812 -0.825872 20.5
12.167315 -21.121151 -0.80605131 22
12.238574 -21.103153 -1.0170588 26.625
12.263152 -21.146687 -0.82523817 22.833334
12.097445 -21.098078 -0.79789931 26.5
12.048613 -21.057377 -0.79179174 27
12.330233 -21.089645 -1.1113611 26.166666
12.19841 -21.102646 -1.0849414 26.5
12.347075 -21.123898 -0.92294317 23.428572
12.306189 -21.031969 -0.82687122 23.5
12.428109 -20.935202 -1.106644 10
12.270024 -21.098787 -0.9684462 24.833332
12.122779 -21.08633 -0.94282496 25.200001
12.344234 -21.047886 -0.70679057 22
12.26308 -21.051701 -0.69207317 22.5
12.209186 -21.110935 -1.182228 5
12.029954 -20.988922 -1.1658915 19.571428
12.349978 -21.014809 -1.0308677 19
12.246383 -21.116184 -0.91454291 22.583332
12.094079 -21.080259 -0.8930639 25.333332
12.319654 -21.143364 -0.97718626 24.200001
12.091644 -21.108274 -1.0333569 17.857143
12.348061 -21.103449 -0.80664116 22.4
12.185 -21.119797 -0.77768618 25.6
12.417594 -21.038568 -1.0956446 25.166666
12.278545 -21.029617 -1.0670825 32
12.493579 -21.015354 -0.84638244 22.25
12.312387 -21.039412 -0.80523235 23.9125
12.422623 -21.017197 -0.96134245 26.200001
12.326266 -21.178749 -1.0097448 16.857143
12.156667 -21.003731 -1.0004405 16.666666
12.471802 -20.976086 -0.79931557 21.333334
12.347555 -21.047663 -0.76861912 25.5
12.267205 -21.004555 -0.7573266 24.666666
12.338537 -21.095974 -1.1309994 21.25
11.997252 -20.851635 -1.1242625 11.833333
12.374502 -21.068541 -0.88208193 22.950001
12.211125 -21.101662 -0.8616119 24.674999
12.093527 -21.039007 -0.94041127 23
12.17731 -21.268639 -1.1397579 9.2222223
11.851439 -21.040237 -1.1308048 8.75
12.478295 -20.955029 -0.96356344 22.033333
12.285569 -21.044346 -0.93090147 24.375
12.430838 -20.912834 -1.1161878 21.5
11.939098 -20.71991 -1.1128112 10
12.253597 -20.957767 -1.1020837 30.4
12.44593 -20.930548 -0.86896706 21.666668
12.281231 -21.011543 -0.85261285 23.361111
12.362578 -20.94733 -0.97996736 23.299999
12.165339 -21.024004 -0.96096754 23.8125
12.241848 -21.106098 -0.87758327 23
12.342073 -20.976101 -0.73530567 22.5
12.222946 -21.005606 -0.72591126 23.5
12.467092 -21.018417 -1.072055 16.700001
12.169293 -21.069084 -1.0631485 19.615385
12.376995 -20.992706 -0.83843625 22.25
12.200215 -21.063215 -0.82929337 23.25
12.376186 -20.900139 -1.0944464 21
12.244568 -20.997726 -1.0841498 27.142857
12.118398 -21.014084 -1.0824212 25
12.409527 -20.907799 -0.93704802 23.666666
12.268764 -21.008095 -0.84954244 23.3125
12.093962 -20.977251 -0.85138577 20.125
12.229515 -20.961344 -0.89246625 23.556396
11.995834 -20.912373 -0.90293676 20
12.394569 -21.020424 -1.1211951 18.369047
12.132674 -21.12993 -1.1194673 18.385714
12.333483 -20.972134 -0.90088737 24.857143
12.111547 -21.030991 -0.9029659 23
12.254042 -21.069101 -1.1098157 26.142857
12.187463 -21.131136 -0.87391913 22.875
12.066122 -21.121185 -0.87508547 21.5
12.286951 -21.171326 -0.87055612 22.7875
12.204725 -21.088661 -0.97481042 18.041666
12.266225 -21.108215 -0.8915171 24.5
12.145718 -21.026028 -0.82697612 21.25
12.270183 -21.077065 -0.73914617 23.90909
11.977489 -21.061514 -1.0920058 11.5
12.335616 -21.100702 -1.0681864 26
12.222208 -21.121387 -1.0733265 33.42857
12.215643 -21.146713 -1.0836161 28.333334
12.331441 -21.130106 -1.079264 29.200001
11.997343 -20.988405 -1.0208706 13.7
12.435839 -21.049377 -0.90994793 24
12.276712 -21.181118 -0.90880185 24.222221
12.387708 -21.085611 -0.91389751 24.016666
12.165421 -21.151674 -0.92659116 22.9
12.333344 -21.19503 -0.82765794 24
12.268652 -21.231102 -0.8305459 23
12.283099 -21.103554 -0.66459727 23.5
12.199125 -21.126934 -0.66941857 23.5
12.381247 -20.79063 -1.1159908 10
11.931743 -20.74519 -1.142737 11
12.288222 -21.171219 -1.0926639 24.444445
12.45075 -21.063866 -0.92163205 24
12.27977 -21.156487 -0.83905709 22.511364
12.34019 -21.26726 -1.0579104 17.818182
12.049786 -21.340664 -1.0568831 15.692307
12.277938 -21.201582 -0.81139952 23.4
12.083104 -21.156975 -0.81688577 21
12.40097 -21.114475 -1.0344549 17.607143
12.169847 -21.179874 -1.0348485 15.75
12.300415 -20.997229 -0.79383993 23.625
12.090194 -20.996548 -0.79809773 20.5
12.251332 -21.144909 -0.86412293 23.964645
12.402605 -20.899467 -1.0896608 9
12.093443 -21.152065 -1.085838 19
12.371824 -21.206089 -1.0682737 25
12.243479 -21.230389 -1.0727847 25.200001
12.382548 -21.16959 -0.81196129 23.583332
12.219282 -21.224003 -0.81596696 22.514286
12.247108 -21.007347 -1.0841899 29.666666
11.951945 -21.096973 -1.0969828 15.615385
12.304423 -21.061977 -1.0761284 28.666666
12.044575 -21.058432 -0.92090082 21
12.311054 -21.073593 -0.81782067 23.628571
12.115351 -21.097054 -0.82851601 21.166668
12.304996 -21.142225 -1.1514264 12
12.107311 -21.326967 -1.148626 10.909091
12.021276 -20.99173 -0.92301726 21.25
12.362042 -21.006876 -0.98781276 20.431217
12.128838 -21.058006 -0.91321146 23.625
12.002161 -20.961481 -0.98067677 16.5
12.392429 -20.966614 -0.87444949 25.5
12.199133 -21.074787 -0.87656629 24.962961
12.029091 -21.0256 -0.81838238 22
12.40199 -21.026001 -0.96660554 19.931313
12.183342 -21.102779 -0.89110005 25
12.359454 -21.132187 -1.0243067 25.799999
12.202396 -21.176334 -1.0348521 26.6
12.016193 -21.077278 -0.88229686 17
12.377821 -21.121399 -0.85140985 24
12.187851 -21.155483 -0.77909201 21.392857
12.430133 -20.894684 -1.1285191 11.75
12.356292 -21.057236 -1.1240005 24
12.16895 -21.243065 -1.1277574 15.545455
12.390203 -21.073631 -0.86097842 23.4
12.21037 -21.16283 -0.87183541 22.875
12.365887 -21.136187 -1.0629705 26
12.226798 -21.163754 -1.0730586 24.6
12.358239 -21.106987 -0.80586517 23.666668
12.200647 -21.159946 -0.81597269 22.428572
12.363256 -20.784306 -1.0846789 16
11.948769 -21.060331 -1.1090536 11
12.303902 -21.132271 -1.0694959 27.4
12.054244 -21.161062 -1.0922893 21.4
12.337656 -21.114117 -0.8075006 23.674999
12.178074 -21.158293 -0.82088041 22.233334
12.301788 -21.11895 -0.99953341 26
12.143343 -21.142044 -1.0167297 24.333334
12.32113 -21.120304 -0.82497704 23.555555
12.099329 -21.104847 -0.85026574 18.75
12.318295 -21.151115 -0.9067198 24.333332
12.121193 -21.137947 -0.93002784 20.666668
12.375854 -21.116537 -1.0967355 11.6
12.304507 -21.115171 -0.84598112 24.533333
12.090957 -21.102837 -0.8710289 21
12.290425 -21.132732 -1.0156163 25.5
12.258794 -21.122469 -0.84715968 22.333334
11.985146 -21.033386 -0.88387865 19
12.296246 -21.154919 -1.0177052 25.700001
12.220669 -21.131083 -0.76753676 22.576923
12.011936 -21.062656 -0.88349497 18
12.281525 -21.133539 -1.0345328 24.888889
12.225441 -21.115654 -0.78179628 22.147728
12.040578 -21.073227 -0.89428896 18
12.294492 -21.136158 -0.99915379 24.90909
12.269548 -21.126431 -0.82976216 21.846153
12.303534 -21.134205 -1.0367162 25.5
12.430225 -21.028982 -0.84804279 24
12.198805 -21.123844 -0.79091662 22.625
11.992062 -21.077423 -1.1171318 11.666667
12.295669 -21.140469 -1.0711668 25.888889
12.310083 -21.134232 -0.80824703 23.175323
12.105742 -21.120703 -0.83637422 18.333332
12.285694 -21.102829 -1.0773201 27.571428
12.019958 -21.290192 -1.1052369 12.8
12.317862 -21.12883 -0.81031561 23.964287
12.1288 -21.136421 -0.83594728 20
12.376487 -20.796961 -1.0944349 15
12.281506 -21.11294 -1.0929666 30.142857
12.038465 -21.317051 -1.1175506 12.272727
12.323552 -21.127537 -0.8249985 23.7125
12.120911 -21.120823 -0.85321105 18.5
12.380348 -20.800119 -1.1204164 11.666667
12.281053 -21.116299 -1.1188364 26.799999
12.32609 -21.125103 -0.85081965 24.262501
12.12858 -21.135044 -0.87766606 21.666668
12.026581 -21.019253 -1.0142486 70
12.345347 -21.143456 -0.8781271 24.928572
12.182907 -21.175091 -0.89904547 22.25
12.370352 -21.083504 -1.1096706 16.333334
12.349083 -21.12883 -0.84963489 24.571428
12.178725 -21.166431 -0.87161779 23.5
12.351952 -21.078102 -1.1206319 24
12.219577 -21.316269 -1.1271064 12.428572
12.363733 -21.119783 -0.85581475 23.791668
12.193349 -21.163471 -0.87792832 24.15
12.423436 -21.111908 -0.88255936 24.166666
12.242996 -21.190706 -0.90462118 23.012501
12.30337 -21.166857 -0.92821646 24.186363
12.05649 -21.097332 -0.87322712 19
12.257682 -21.107264 -0.9097454 24.549999
12.019115 -21.035271 -0.8537969 20
12.275677 -21.144831 -0.89958435 24.463636
12.006497 -21.057983 -0.84478909 19
12.312123 -21.181919 -0.90090787 24.727777
12.102755 -21.142683 -0.92461097 22
11.912451 -21.029573 -1.0935929 11.375
12.335974 -21.137478 -1.0412154 25.5
12.169493 -21.158253 -1.058574 26.666666
12.037006 -21.088966 -0.9017663 18
12.330734 -21.123959 -0.78200626 23.404762
12.142386 -21.147381 -0.80098248 21
12.32325 -20.773746 -1.0139894 15
11.939264 -21.053377 -1.0362554 11.75
12.266155 -21.073109 -1.0004375 28.333334
12.015006 -21.127268 -1.0232332 24.666666
12.005491 -21.043341 -0.8551482 21
12.276797 -21.080143 -0.73844707 23.904762
12.093208 -21.093857 -0.75639427 21.333332
12.376098 -20.856842 -1.1383351 12
12.232656 -21.129875 -1.1326151 27.875
12.280774 -21.148607 -0.86678731 23.541668
12.456322 -20.935648 -1.1636229 12
12.308883 -21.162714 -0.98353124 24.337038
12.06402 -21.25676 -1.0784807 15.772728
12.284067 -21.16292 -0.8112607 20.5
12.106377 -21.14423 -0.82224488 21
12.343826 -20.688272 -1.0829022 23
12.327206 -21.197544 -0.9606421 24.428572
12.204532 -21.230511 -0.96430516 24
12.34018 -21.122669 -0.79008889 24.333332
12.122676 -21.153389 -0.79768872 21.4
12.380495 -20.837124 -1.0285947 27
12.422039 -21.111506 -0.91943765 23.166668
12.245377 -21.203461 -0.92522693 24.200001
12.477083 -20.943062 -1.0839752 11.333333
12.333946 -21.181614 -0.9923107 23.866667
12.171698 -21.304817 -0.99570388 16.875
12.382048 -21.135509 -0.8166768 24.041668
12.147888 -21.186382 -0.83094519 22.458332
12.044415 -21.066494 -1.030695 62
12.316181 -21.232304 -0.91441089 23.75
12.061817 -21.14822 -0.8489061 18
12.288039 -21.168663 -0.83246809 21.166666
12.365818 -21.172413 -1.0176013 18.75
12.383862 -21.125221 -0.84479123 23.9
12.134151 -21.167883 -0.86071616 22.5
12.301916 -21.182575 -0.97430551 26.200001
12.401943 -21.094799 -0.88381469 23.666666
12.182032 -21.17436 -0.89641583 22.444443
12.395596 -21.072914 -1.1216788 14
12.25568 -21.241714 -1.0353613 18.725
12.420728 -21.057209 -0.8582375 25
12.233123 -21.149246 -0.86886716 22.799999
12.3948 -20.95438 -1.1282597 13
12.455009 -21.034279 -0.94100165 25
12.263929 -21.176125 -1.0349152 24.204544
12.39554 -20.770378 -1.1177677 10.666667
12.267805 -21.096653 -1.1023234 31.375
11.956663 -21.181538 -1.1143602 10.818182
12.257447 -21.123722 -1.0364168 26.666666
12.417137 -21.054661 -0.97841865 25
12.254688 -21.164005 -0.98291928 26.444445
12.351849 -20.732346 -1.0578144 55
12.258609 -21.159492 -1.0364814 26.888889
12.386046 -20.803825 -1.1022679 12
12.245336 -21.132263 -1.0896071 31.111111
12.442345 -20.944981 -1.1206238 11
12.290369 -21.125637 -1.0285664 22.353535
12.074156 -21.094822 -0.95431519 23
12.439305 -21.058422 -0.89658999 24
12.268159 -21.154133 -0.90308356 22.545456
12.004313 -21.049562 -0.90918267 17
12.319357 -21.122494 -0.98234499 24.803572
12.119349 -21.134785 -0.98798215 21.791668
12.2781 -21.175426 -0.98466927 25.222221
12.018195 -21.072823 -0.82934994 17
12.287348 -21.152853 -0.81470186 22.083334
12.214027 -21.096748 -0.94821334 21.053846
12.438572 -21.134846 -1.0074642 18.041666
12.156828 -21.229622 -1.0038288 17.83173
12.373936 -21.141638 -0.75252956 23.5
12.204202 -21.190767 -0.7508921 23.285715
12.135683 -21.263302 -0.85410678 26.75
12.314077 -21.238277 -0.97506106 23.388889
12.112921 -21.232422 -0.97318709 19.5
12.278522 -21.192669 -0.73063219 22.875
12.359434 -21.050468 -1.0818893 20.833334
12.138835 -21.068052 -1.0748994 30.666666
12.358781 -21.015944 -0.84206808 23.166666
12.148272 -21.059971 -0.83225954 20.083332
12.328164 -21.076202 -0.83655584 22
12.223929 -21.150723 -0.90796208 22.333334
12.175267 -20.905174 -1.0732635 18
12.458458 -21.0481 -0.90699095 22
12.260336 -21.188959 -0.96660715 23.361538
12.277024 -21.174812 -0.733208 22
12.202868 -21.245525 -1.1382836 11.461538
12.410347 -21.063334 -0.92963111 23
12.20671 -21.146114 -0.92076516 20.7125
12.265136 -21.203203 -0.91640961 22.910713
12.257971 -21.179846 -0.88914329 23.945665
11.928256 -21.101061 -0.96413547 15.307693
12.269956 -21.156145 -0.74476713 21.5
12.051593 -21.143139 -0.73932868 20
12.386949 -20.919672 -1.113099 15.333333
11.859529 -20.990484 -1.1045853 11.692307
12.251676 -21.08205 -0.95071822 25.664429
12.05938 -21.073063 -0.87845951 19.5
12.438148 -20.847654 -1.0060486 18.984125
12.094456 -21.00688 -0.97623134 20.979797
12.366101 -20.972088 -0.85121763 24
12.239463 -21.063179 -0.90570128 22.049999
11.888012 -20.945202 -1.0605395 10.2
12.36841 -20.987995 -0.98864233 20.866667
12.164402 -21.046188 -0.98068261 26.6
12.345924 -20.988262 -0.78764081 22.791666
12.135268 -21.033447 -0.78061342 21.041666
12.315302 -20.69668 -1.1910318 10
12.387579 -21.081676 -1.1418179 11
12.456232 -21.128635 -1.0077058 26
12.281084 -21.278252 -0.98821265 24.907469
12.038255 -21.216549 -1.0560238 15.5
12.124943 -21.292574 -1.119772 10
12.356856 -20.86603 -1.0592084 8
12.363291 -21.102188 -0.90460348 24.688889
12.188818 -21.182371 -0.89445877 23.78451
12.379045 -21.002125 -1.1322751 20.90625
12.084653 -21.029305 -1.1240467 23.100695
12.335603 -21.005226 -0.89715767 25.25
12.123657 -21.050068 -0.88613117 20.964287
12.231354 -21.132349 -0.93660426 23.5
12.351057 -21.229843 -1.1546966 10.166667
11.947501 -21.236151 -1.145366 7.8235288
12.2815 -21.017464 -0.9128738 24.895433
12.070148 -21.013866 -0.90627527 20.25
12.354339 -20.926094 -1.1689988 12
11.885231 -21.076267 -1.1231251 25.4
12.290574 -21.246298 -0.84727252 23.5
12.089404 -21.245369 -0.83498812 18
12.063866 -21.118195 -1.0821266 11.473684
12.415805 -20.843941 -0.88947296 18.283333
12.338324 -21.054462 -0.85025769 25.9
12.163444 -21.104439 -0.83496159 22.768688
12.30382 -21.103825 -1.0635064 20.70294
12.029071 -21.099346 -1.060717 15.033333
12.306944 -21.049683 -0.83336633 25.063469
12.06755 -21.048843 -0.87539536 18.666666
12.445137 -20.87265 -0.95639366 21.933334
12.007683 -20.984249 -0.92954606 16.5
12.42123 -21.041786 -0.96837479 23.166288
12.185153 -21.196001 -0.98055851 19.006447
12.417915 -20.93314 -0.75596422 16
12.386069 -20.988464 -0.74666244 25.799999
12.223238 -21.076941 -0.72876447 23.6
12.495605 -21.037203 -1.0190153 17.532608
12.258299 -21.199881 -0.93844712 23.1875
12.245958 -21.303585 -0.93908429 21.053112
12.372693 -21.136501 -0.73383915 17
12.243124 -21.221798 -0.71656144 24.6875
12.39158 -21.13147 -1.0113513 22.596836
12.152797 -21.216656 -0.99137658 21.544415
12.343725 -21.120895 -0.76164544 19.183334
12.214076 -21.165724 -0.75024647 17.625
12.17231 -21.175079 -1.1778378 12.36
12.396359 -21.006208 -0.98060077 23.466667
12.227888 -21.114857 -0.95822698 21.47666
12.348558 -20.824051 -0.77471215 11
12.40819 -20.869751 -1.1259216 13.136364
12.326495 -21.116222 -1.0952888 21.14502
12.064496 -21.15011 -1.0897291 19.711538
12.384821 -20.884245 -0.87983149 17.113094
11.946856 -20.923382 -0.96141201 8
12.313044 -21.036484 -0.82601571 20.741924
12.102217 -21.07321 -0.85197753 15.616667
12.272223 -21.11256 -1.1053426 21.704023
11.935897 -21.143379 -1.1210985 13.301865
12.445595 -20.9326 -0.93857759 23
12.276697 -21.060736 -0.8437565 20.980234
12.010987 -21.039894 -0.91978389 13.5
12.263045 -21.191097 -0.91631436 26
12.383922 -21.095024 -1.0186931 20.871027
12.078942 -21.129951 -0.98605555 16.839571
12.334186 -21.046589 -0.74889237 20.711296
12.154395 -21.106459 -0.73354703 17.648989
12.434815 -20.835661 -1.0127556 18.122608
12.361597 -21.051502 -1.0108508 22.944227
12.09883 -21.121567 -1.0082232 16.408266
12.38285 -20.811125 -0.77512437 15.944446
12.324858 -20.971603 -0.74026769 21.322735
12.158281 -21.025448 -0.73210722 19.28499
12.318426 -21.244755 -1.1778023 10.574945
12.322603 -20.881727 -1.0137289 23.391836
11.943414 -20.926065 -1.0275778 12.332654
12.283774 -21.007776 -0.96577668 21.90568
12.310613 -20.857349 -0.77387476 19.682796
12.059936 -20.928856 -0.79020739 11
12.269986 -20.925385 -0.75822055 21.958332
12.278347 -20.737686 -1.1860759 14
12.238074 -21.21393 -1.1304036 17.529224
12.389096 -21.023962 -0.89850891 18.469978
12.250261 -21.178806 -0.86617368 18.901917
12.232826 -21.28828 -0.93139708 19.799999
12.346349 -20.733601 -1.098224 11.256429
12.297441 -21.124275 -1.0420254 17.592514
11.93935 -21.169701 -1.0592784 10.895132
12.273528 -21.079165 -0.78606343 18.158321
12.04703 -21.132238 -0.84004736 9.083333
12.377524 -20.805105 -1.0938413 13.046571
12.27679 -21.0522 -1.0486964 18.777788
11.978437 -21.143723 -1.0526667 10.498445
12.359039 -20.834064 -0.82114375 14.827674
12.27469 -21.016891 -0.78808939 20.402782
12.055459 -21.041529 -0.85291731 7.8000002
12.316611 -20.943033 -1.0182022 15.801593
12.250786 -21.149591 -0.94762224 20.506365
12.418371 -20.886169 -0.90926462 15.9125
12.310276 -20.970819 -0.8108027 17.776436
11.869339 -20.947247 -0.90663671 5
12.235232 -21.11171 -0.81751692 19.664427
12.211302 -20.673496 -1.0859454 11.088056
12.406091 -21.023939 -0.87824583 20.198616
12.260242 -21.196089 -0.82712293 20.071329
12.270161 -20.831209 -0.89491373 4
12.388663 -21.008413 -0.83857733 19
12.256764 -21.09112 -0.74161774 16.244534
12.272281 -20.777445 -0.79414934 10.41054
12.207424 -21.110155 -0.66455013 17.403088
12.286983 -20.885977 -0.66514713 16.58914
12.233199 -21.0413 -0.62833089 15.977286
12.105345 -20.952225 -0.76162314 10.5
12.197413 -20.744797 -0.77034438 12.661715
12.162693 -20.934692 -0.74977851 12.583333
12.021393 -21.147007 -0.87073237 15
11.992809 -21.258766 -0.88401896 7
12.136353 -21.028549 -0.85410076 9.5
12.122124 -20.773981 -0.78805524 0
11.96571 -20.841976 -0.65270352 4
11.994976 -20.875099 -0.9975732 11.5
12.013081 -21.049583 -0.91923767 5
11.973576 -20.840122 -0.88052636 12
11.940945 -21.003426 -0.62979209 2
11.959362 -20.805782 -0.59123075 5
12.018635 -20.808064 -0.63820171 7
11.943729 -21.005178 -0.8688004 15.5
12.068169 -20.72488 -0.80960584 7
11.879181 -21.074421 -0.78398746 20
12.100235 -21.298796 -0.82287425 7
11.996185 -20.878515 -0.75304049 19
11.976707 -21.036224 -0.95649624 10.5
11.993492 -20.729458 -0.90261221 25
12.040485 -20.955917 -0.81026554 2
12.003628 -20.747086 -0.77937126 9
11.960739 -20.904007 -1.0877695 12
11.992153 -21.064198 -0.83059639 13
11.999378 -20.847643 -0.77751678 21
11.998329 -20.888988 -0.82942945 6
12.09967 -21.152039 -0.80167162 6
11.923431 -20.839746 -1.0124294 2
12.006668 -21.064428 -0.86894244 9
12.073154 -21.083981 -0.85021812 25
12.05122 -21.11578 -0.99903345 9
11.996925 -21.112219 -0.8523702 23
11.9776 -20.995274 -0.94482201 18
12.053307 -21.134254 -1.066752 18
12.014355 -21.049456 -1.0361886 22
12.156937 -21.167503 -0.9103713 13
11.981663 -21.023487 -0.86519957 11
12.054958 -21.141945 -0.81803322 16
12.05888 -21.111303 -1.1112027 9
11.925823 -20.948425 -1.0627513 4
12.150757 -21.156677 -0.86587334 10
11.969234 -21.026237 -0.82746506 23
12.095421 -20.915623 -0.87021697 16
12.065094 -20.97562 -1.1982466 8
11.963577 -20.990685 -1.0065475 9.5
12.018932 -21.126877 -1.0182126 10
12.109383 -21.138702 -0.91174895 9
11.970165 -20.988773 -0.88994223 11
12.000755 -21.113792 -1.1196058 11
12.023994 -21.136955 -0.98545891 11
11.857792 -21.004597 -0.96671826 5
11.973843 -21.032574 -0.96814722 8.5
12.042953 -21.093697 -1.115047 11
11.995739 -21.043125 -1.1813753 8
12.062263 -21.131405 -0.92994624 8
11.978477 -21.1231 -1.0741434 12
11.993443 -21.025696 -0.89056569 7
12.103348 -21.204788 -0.99054378 7
11.978516 -21.047226 -0.96754879 9
11.982861 -20.988815 -1.2302544 4
12.046768 -21.083691 -0.88275397 7
11.959618 -20.956429 -0.89012539 7.5
11.990711 -21.107761 -1.0145078 11
11.969913 -21.035278 -1.2280586 6
11.975803 -21.068882 -1.0770274 8.5
12.028549 -21.083557 -1.2633404 9
11.957851 -20.892487 -1.2407507 7
12.111774 -21.146885 -0.94713354 7
11.956398 -21.008537 -0.92039824 6
11.898811 -20.936642 -1.185819 4
11.959763 -21.057484 -1.1003172 11
12.128922 -21.066509 -0.92078424 4
11.984581 -21.025036 -0.87213659 14
11.948215 -20.807732 -0.86650705 9
12.038292 -20.752647 -1.2340986 8.5
12.033878 -21.165478 -1.1351216 16
11.88998 -21.016724 -1.1191142 10
12.014957 -20.99921 -1.2707527 8.5
12.151176 -20.965897 -1.2747511 13
11.996349 -20.825775 -1.2582525 19
12.027718 -21.162479 -1.1016952 24
11.903675 -21.003826 -1.0889302 16
12.074528 -21.117077 -0.8975777 23
11.933697 -20.970959 -0.88554806 20
12.011967 -21.032253 -1.3286277 8
12.1161 -21.328369 -0.92222625 8
11.913792 -21.129585 -0.90234405 22
12.003815 -20.94997 -1.2503382 3
12.088966 -21.036987 -0.94951499 9
12.094162 -21.151619 -0.92273974 11
11.974331 -20.801586 -0.88936877 2
12.173096 -21.023422 -1.0687714 13
12.050888 -20.897354 -1.0465298 10
12.10223 -20.880768 -1.2984227 27
11.992168 -21.214367 -0.95883811 26
11.890213 -21.072197 -0.96711028 16
12.093414 -21.169006 -1.1052237 18.5
11.918846 -20.979443 -1.1076653 15
12.073771 -21.055931 -1.2102481 25
11.965979 -20.925194 -1.2169381 19
12.014425 -21.192787 -1.1311264 28
11.895658 -21.07645 -1.1314807 22
12.163506 -21.277725 -0.94723666 10
11.977764 -21.219147 -0.9404484 17
12.040476 -21.038685 -1.0765071 21.666666
12.12657 -21.122334 -1.2062594 15
12.031324 -20.994965 -1.2091366 14
11.957422 -21.006096 -0.93161988 2
12.090717 -21.192612 -1.1804575 25
12.050714 -21.304913 -1.1348115 29
11.990442 -20.946461 -1.1453644 4
12.105171 -20.797867 -0.95454973 10.666667
12.161983 -21.25366 -1.0242097 15
11.967178 -21.019993 -1.0197642 17
11.99501 -21.242388 -0.87778127 12
12.143936 -21.085136 -1.198971 27
11.963749 -20.960224 -1.1930397 23
12.066668 -21.293367 -1.1850214 28
11.953386 -21.205471 -1.1772809 26
11.874952 -21.085304 -1.1719556 17
12.097157 -21.138254 -1.1108944 28
11.984173 -21.052673 -1.1029303 25
12.236244 -21.199726 -1.120465 7
11.963688 -20.879452 -1.1007965 13
11.992102 -21.083811 -1.3329972 11
12.115301 -21.125732 -1.2405701 31
11.992329 -20.868814 -1.243041 13
12.1696 -21.061255 -0.82239491 6
12.266628 -21.064892 -1.2786145 15
12.090946 -21.066221 -1.2807817 26
12.010006 -20.965319 -1.2906804 21
12.03262 -20.983454 -1.3143337 24
12.210522 -21.069454 -1.1127282 14
12.108522 -20.998783 -1.1218911 32
11.91423 -20.846243 -1.1409663 18
12.084094 -20.954969 -1.3525527 19
12.243999 -21.016499 -0.86374664 13
12.088448 -21.0193 -0.85776949 20
12.301728 -21.116476 -0.98417342 10
12.161551 -21.101767 -0.97677243 31
12.042785 -20.96452 -0.97235382 24
12.05119 -21.271105 -1.0722141 30
11.893783 -21.091547 -1.0595384 2
12.168194 -21.132303 -0.80827594 14
12.138446 -20.928959 -0.99059165 20.25
12.226958 -21.15152 -1.0701444 21
12.088117 -21.06146 -1.0647869 31
11.957711 -20.958868 -1.0601926 15.5
12.104551 -21.176739 -1.0479003 29
11.963436 -21.092434 -1.0496398 25
12.095541 -21.052954 -0.86392373 21
12.200575 -21.115398 -1.0922194 1
12.08676 -20.994164 -1.0994935 25.5
12.286549 -21.25672 -1.0069141 9
11.999964 -21.120514 -1.0216746 14
12.294706 -21.09761 -1.0198847 6
12.13591 -21.059275 -1.0238909 21
12.124104 -21.202932 -0.89983308 17.666666
11.954498 -21.090088 -0.91015685 22
12.396893 -20.972982 -0.96245998 4
12.100424 -20.989882 -0.95164055 16.5
12.44931 -20.91567 -0.96194917 1
12.172968 -21.107586 -0.94661194 25
11.970085 -20.963175 -0.95199782 29
12.208548 -21.200655 -0.96630651 12.666667
12.006088 -21.062746 -0.97600847 19.5
12.35873 -21.007309 -0.8325184 11
12.093418 -20.786877 -0.83353978 1
12.182737 -21.031773 -0.82715088 14
12.125906 -21.076809 -0.88216227 13.666667
11.966449 -20.975557 -0.89045638 26
12.425651 -20.945328 -1.2619085 4.5
12.026778 -21.03252 -1.2583718 9
12.05877 -21.007244 -0.90055943 0
11.97146 -20.982681 -0.90608597 19
12.323105 -21.177427 -0.96852744 1
12.186238 -21.154476 -0.9712559 19.5
12.3429 -20.929062 -1.2580496 26
12.092997 -20.840464 -1.2504214 13
12.13985 -20.94664 -1.2472571 31
12.29703 -21.272743 -0.97474283 0
12.124139 -21.237312 -0.98212546 28.333334
11.984319 -21.133125 -0.99436373 28
12.447027 -21.000671 -0.90993667 0
12.179757 -21.165648 -0.89953136 7
12.048405 -21.045654 -0.90638423 4
12.326512 -21.086126 -0.92900288 15
12.095973 -20.986843 -0.92339909 12.666667
12.28049 -21.109985 -0.88509142 4
12.072995 -21.070154 -0.88549507 6.666667
12.129721 -21.180502 -1.0016596 32
11.996496 -21.082798 -1.0039198 22.333334
12.281536 -21.035975 -1.0567989 14
12.140557 -20.958136 -1.05321 30.5
12.180851 -21.182846 -1.0956044 24
12.047625 -21.098583 -1.1032834 20.666666
12.139072 -21.042061 -0.9517858 14
12.011105 -20.948528 -0.95741677 16
12.317442 -21.049423 -1.0650922 14
12.043647 -20.918791 -1.0566994 15
12.148627 -21.058933 -1.0554594 31
12.257481 -21.14426 -0.82010913 20
12.08529 -21.071287 -0.82426608 18
12.130556 -21.107435 -1.1581883 20.333334
11.905821 -20.78867 -1.1789771 9.8000002
12.386827 -21.001518 -1.0240541 6
12.275492 -21.080288 -1.0152442 28
12.126358 -20.96887 -1.0143788 12
12.212397 -21.20479 -1.1247753 13.5
11.968157 -20.960711 -1.1371936 0
12.089512 -21.225183 -1.1210958 31
12.220209 -21.130163 -1.0013874 8
12.007677 -21.00415 -1.0045124 7
12.060596 -21.059729 -1.0022266 10
12.232687 -20.944935 -1.2218087 24.666666
12.131603 -20.95265 -1.215361 25
12.320454 -20.977554 -0.8418467 18.5
12.169798 -20.985403 -0.83356154 19
12.205945 -21.076012 -0.95031631 6.333333
12.232761 -21.177614 -1.0224942 9.8000002
12.048186 -21.103157 -1.0192813 4
12.277312 -21.051079 -1.0767021 27
12.148294 -21.025793 -1.0714141 30.333334
12.150424 -21.101515 -1.1621825 19
12.228571 -21.059809 -0.81242228 11
12.316573 -21.17914 -1.0727733 2
12.207485 -21.234272 -1.0647551 8.5
12.058848 -21.162092 -1.0633978 15.75
12.313082 -21.073277 -1.2318531 24.333334
12.120131 -20.982967 -1.2271348 12
12.264778 -21.103329 -0.929322 23
12.14241 -21.053198 -0.92577291 28
12.248626 -21.176968 -1.0029962 29
12.09461 -21.072407 -1.0022858 26
12.099051 -21.221931 -0.99399078 27.5
12.405205 -21.080982 -1.1482494 7
12.25864 -21.13196 -1.1366618 22.5
12.153189 -21.061741 -1.1350384 27.333334
12.428957 -21.035212 -0.99054015 11
12.294651 -21.204304 -0.9754144 9.5
12.172762 -21.258339 -0.94633842 21.916668
12.074149 -21.260056 -0.94490755 17.25
11.991707 -21.186499 -0.82856107 6
12.360747 -21.116602 -0.97765225 12
12.433662 -21.004314 -0.98660868 12
12.297806 -21.186272 -0.97216815 20
12.144615 -21.104805 -0.97953945 28.200001
12.470177 -20.993174 -1.1640815 5.5
12.163336 -21.050793 -1.1525866 13.636364
12.197422 -21.108982 -0.91635096 23.777779
12.209564 -21.195374 -1.2021418 20.4
11.938355 -21.077379 -1.2159991 7.7142859
12.199175 -21.263769 -0.97148073 23.833334
11.997303 -21.15662 -0.98266244 24.666666
12.204409 -21.094284 -0.96747792 26.729168
12.438862 -20.901373 -1.120374 9
12.176619 -21.118662 -0.98532188 25.069445
12.044799 -20.895016 -1.1079905 9
12.307554 -21.17514 -1.1560955 28
12.146482 -21.116243 -1.1604635 20
12.094916 -21.202648 -1.1519647 28
12.299429 -21.208603 -0.94637239 16.666666
12.211513 -21.2778 -0.94069958 27
12.082468 -21.190563 -0.94682682 25.833334
12.350607 -21.156767 -1.0834855 13
12.098886 -21.16655 -1.0701557 26.799999
12.363647 -21.121773 -0.88427466 13
12.300449 -21.169937 -0.87802851 22
12.132438 -21.146017 -0.8717733 23.666666
12.375031 -21.126884 -0.99864483 21.75
12.30205 -21.13908 -0.99222815 25.166668
12.190369 -21.104244 -0.9864257 27.25
12.34269 -21.230099 -1.0590594 15.190475
12.162889 -21.202374 -1.0529431 20.85
11.938254 -21.126745 -1.0486062 17.416668
12.295505 -21.152 -0.77616376 22.666666
12.148227 -21.154949 -0.76905763 23.5
12.05836 -21.096466 -0.76862568 15
12.211165 -21.183937 -1.0284079 24.378788
12.383301 -21.193586 -1.1665385 16.924999
12.245304 -21.139084 -1.1594769 18.5
12.094219 -21.043941 -1.1545886 19.25
12.338918 -21.086115 -0.89583462 22.666666
12.272574 -21.097572 -0.88911086 23
12.207031 -21.089577 -0.88372231 25.333334
12.28657 -21.157143 -1.0122205 23.457142
12.133211 -21.15127 -0.99926233 25.333332
12.027665 -21.074207 -0.90636599 24
12.294163 -21.139408 -1.1323621 21.049242
12.008355 -20.968044 -1.1272373 12.0625
12.271985 -21.118147 -0.86851162 23.111111
12.436887 -20.9498 -1.2210611 18.75
12.192537 -21.05817 -1.1855468 27
12.37988 -21.025341 -0.94573766 21.107143
12.219614 -21.066635 -0.92646998 24.583332
12.113296 -21.012184 -1.0083678 24
12.264531 -21.044548 -0.92886347 23.916668
12.027154 -20.972225 -0.83268708 20
12.245284 -21.017485 -0.6749323 23.428572
12.406596 -21.118977 -1.0835419 23
12.105018 -21.124001 -1.0641507 26
12.443962 -21.05798 -0.92414773 20.666666
12.274319 -21.182587 -0.90261054 21.625
12.102606 -21.112366 -0.89744014 22.5
12.343218 -21.037041 -1.197681 24.5
12.176563 -21.065815 -1.1924314 25.25
12.335196 -21.001785 -0.95315266 22.200001
12.222426 -21.087679 -1.0260658 21.666666
12.053241 -20.982693 -1.0328043 21
12.339471 -21.086464 -1.060486 25.75
12.212085 -21.111229 -1.0584908 26.4
12.450598 -20.95385 -0.9101212 19
12.354656 -21.054871 -0.82046926 22.083332
12.194568 -21.067303 -0.81956011 21.666668
12.452084 -20.961098 -1.0177999 22.333334
11.914824 -20.761208 -1.2238697 11.142858
12.297466 -21.109268 -1.0902926 24.222221
12.089259 -21.05739 -1.0235606 21
12.295033 -21.072203 -0.85507804 21.375
12.135569 -21.073978 -0.86073649 19
12.402317 -20.830982 -1.0605013 23
12.23065 -20.999645 -1.1154765 23.845455
12.006169 -20.939276 -1.0341668 19.5
12.22114 -20.93911 -0.88351828 21.333334
12.117546 -21.328625 -1.1828098 9.3000002
12.436996 -20.958086 -0.94022042 24
12.361952 -20.697691 -1.1274664 18
12.279357 -21.082825 -0.91329479 23.883333
12.254662 -21.175018 -0.97893393 24.545454
12.275955 -21.161036 -0.82352537 21.916666
12.03349 -21.088051 -0.82472491 19
12.36223 -20.893986 -1.1549805 18
12.204807 -21.039717 -1.1353549 24.888889
12.429323 -20.898636 -0.99719113 23
12.406354 -20.924572 -0.99411029 24
12.234692 -21.036243 -0.90048808 23.475
12.011211 -20.983086 -0.97983235 18
12.411529 -20.936546 -1.1466446 12.461538
12.060823 -21.139198 -1.1408736 10.583333
12.291162 -21.000183 -0.90718937 24
12.105293 -21.042503 -0.91067344 24.071428
12.331295 -20.653004 -1.2070987 11
12.440049 -20.970516 -1.0108283 26
12.249851 -21.10743 -1.0036043 25.638887
12.373613 -20.842245 -1.1525166 10
12.331475 -21.214893 -1.1162609 26.200001
12.192034 -21.236511 -1.1176567 26.25
12.351938 -21.193722 -0.87924498 24.15
12.181719 -21.224945 -0.88013738 23.75
11.972227 -20.954109 -1.1409274 11.5
12.259592 -21.263332 -1.1020035 28.285715
12.250919 -21.285513 -0.86068177 23.055555
12.345489 -21.244434 -0.90364575 3.7
12.28314 -21.288733 -0.89981568 2.666667
12.365599 -21.130878 -1.0627393 22.063492
12.048311 -21.157766 -1.0588155 18.625
12.311892 -21.179398 -0.8184588 23.625
12.132702 -21.18959 -0.8157922 21.333334
12.324695 -21.126995 -0.96514034 24.555555
12.118738 -21.134859 -0.97361374 21.028204
11.964445 -20.910212 -1.0474278 75
12.055128 -21.16124 -1.174805 13.75
12.376461 -21.026196 -0.93464881 21.924999
12.06061 -21.048523 -0.87153906 19.333334
12.310747 -21.118532 -0.92986864 22.166668
12.180909 -21.122572 -0.93678218 22.083332
12.383039 -20.948673 -0.80544865 22
12.380088 -21.076248 -0.9480015 19.247059
12.149275 -21.083591 -0.89136553 21.805195
12.163902 -21.025768 -0.66384053 21.4
12.37734 -21.170116 -0.77086616 25
12.243144 -21.205585 -0.7773267 23.333334
12.400713 -21.030104 -0.73557919 16
12.286455 -21.146423 -0.73544133 23.65625
12.105389 -21.141779 -0.76082271 17.5
12.407419 -20.874046 -0.86048245 13
12.059826 -21.013762 -0.89106172 21
12.018814 -20.988163 -0.90083706 18.333334
12.357299 -20.956091 -0.81608206 21.4375
12.2214 -21.040199 -0.82386553 23.777779
12.152696 -20.793005 -0.66529769 8.5
12.123029 -20.918119 -0.65139562 12.111111
12.405625 -20.965191 -0.86679453 10
12.184509 -20.955324 -0.83410215 8.5
12.324285 -21.149298 -0.85042322 22.47826
12.161148 -21.118427 -0.84799916 15.619047
