# .PCD v0.7 - Point Cloud Data file format
VERSION 0.7
FIELDS x y z intensity
SIZE 4 4 4 4
TYPE F F F F
COUNT 1 1 1 1
WIDTH 1306
HEIGHT 1
VIEWPOINT 0 0 0 1 0 0 0
POINTS 1306
DATA ascii
10.716786 -21.626343 -0.78285271 33
10.41572 -21.525803 -0.76744139 12
10.821234 -21.425127 -1.095561 22
10.414825 -21.5201 -1.0508766 27
10.809969 -21.459625 -0.91169333 26
10.432462 -21.519815 -0.8732897 18
10.419185 -21.584677 -1.0782467 17
10.821886 -21.416231 -0.95301557 25
10.334705 -21.550915 -0.90017128 17
10.734518 -21.575104 -0.75571132 32
10.440125 -21.511417 -0.73620051 9
10.814871 -21.411369 -1.0773226 53
10.403847 -21.566513 -1.0316262 20
10.83757 -21.449131 -0.90111357 23
10.492606 -21.61034 -0.86094725 27
10.834789 -21.388088 -1.0285288 26
10.388342 -21.484352 -0.98194015 26
10.806805 -21.458328 -0.84841621 28
10.481775 -21.529154 -0.81427747 19
10.304049 -21.290611 -1.0371939 11
10.807184 -21.34309 -0.88655049 28
10.342539 -21.466404 -0.84790599 27
10.734783 -21.480343 -0.70026851 28
10.475574 -21.5459 -0.67895508 25
10.458469 -21.607098 -1.0812913 16
10.849475 -21.410391 -0.95785105 28
10.362379 -21.556948 -0.91369283 20
10.783077 -21.549931 -0.77455759 24
10.50375 -21.645155 -0.74824464 17
10.781796 -21.410488 -1.1500708 24
10.409105 -21.511251 -1.1416776 13
10.736029 -21.428041 -0.81925946 14
10.499002 -21.470818 -0.81463903 12
10.37512 -21.491863 -0.97752523 23
10.776455 -21.452152 -1.0426341 26
10.479404 -21.569534 -1.0377281 20
10.751522 -21.454227 -0.71785665 18
10.512856 -21.561413 -0.71306127 26
10.361109 -21.508156 -0.88180107 23
10.807306 -21.40279 -1.0604775 26
10.435924 -21.554794 -1.0719376 20
10.809989 -21.41625 -0.89831954 28
10.387865 -21.525711 -0.91535991 21
10.731654 -21.311848 -1.1256152 25
10.326738 -21.453682 -1.1073902 20
10.736814 -21.302525 -0.96544027 21
10.33643 -21.455368 -0.9455961 17
10.736856 -21.486027 -1.075582 28
10.394829 -21.557781 -1.0476722 15
10.724383 -21.43047 -0.84063971 22.5
10.334319 -21.525846 -0.88638109 17
10.533411 -21.57243 -0.7330265 23
10.794278 -21.465755 -0.92852831 29
10.553863 -21.693687 -0.90329713 20
10.787531 -21.431555 -0.77093917 16
10.43417 -21.625664 -0.7497021 23
10.746729 -21.381607 -1.077143 11
10.400365 -21.524214 -1.0581776 18
10.791492 -21.319687 -0.92401719 23
10.325186 -21.483973 -0.90069872 20
10.692885 -21.360073 -0.75734073 16
10.458658 -21.471413 -0.74283636 11
10.702176 -21.352104 -0.94778609 23.5
10.245186 -21.448208 -0.88195384 22
10.382305 -21.518597 -1.0321362 19
10.666735 -21.386055 -0.70526689 16
10.381744 -21.526329 -0.70930058 16
10.79035 -21.414036 -1.02095 32
10.369999 -21.551174 -1.024895 21
10.772154 -21.443104 -0.85699618 25
10.41785 -21.579187 -0.85808074 19
10.830524 -21.50997 -0.96819919 30
10.368692 -21.635361 -0.97020894 18
10.798693 -21.576729 -0.80139387 21
10.466286 -21.692726 -0.80005366 25
10.829397 -21.534023 -0.86825085 21
10.436475 -21.706776 -0.94404376 22
10.576704 -21.78336 -0.77324545 29
10.44104 -21.694298 -1.1089255 0
10.814814 -21.477409 -0.94443834 25
10.359001 -21.614277 -0.93252552 18
10.780427 -21.52721 -0.77792907 22
10.460592 -21.668961 -0.76494682 23
10.771776 -21.46913 -1.0173038 21
10.422768 -21.603533 -1.0301584 17
10.803634 -21.410851 -0.85769874 23
10.325584 -21.551788 -0.87732518 21
10.694309 -21.386948 -0.70301676 14
10.460651 -21.628548 -0.70302576 13
10.815216 -21.355183 -0.93700349 29
10.372205 -21.533524 -0.96500474 22
10.747445 -21.421406 -0.77798462 16
10.404733 -21.549351 -0.79972798 22
10.746414 -21.387039 -0.94200993 13
10.443404 -21.565908 -0.969684 19
10.767345 -21.33535 -0.78474987 19
10.660519 -21.333048 -0.6395514 15
10.367046 -21.525497 -0.74550271 16
10.827943 -21.47282 -0.81320202 18.5
10.434772 -21.650471 -0.85171664 20
10.824231 -21.409197 -0.86646575 20
10.374818 -21.574051 -0.93572754 20
10.72422 -21.354818 -0.74910945 12
10.422382 -21.596827 -0.79212409 15
10.715021 -21.365728 -0.72411805 15
10.434046 -21.596209 -0.78876966 22
10.765648 -21.429983 -0.72480667 18
10.532571 -21.465979 -0.65672612 10
10.507564 -21.669535 -0.66582727 21
10.363678 -21.596073 -0.8159067 14
10.846102 -21.412777 -0.94527876 32
10.440706 -21.604351 -1.0218992 15
10.364981 -21.562283 -0.9256466 16
10.765586 -21.397581 -0.79384398 19.5
10.452686 -21.611141 -0.79484969 19
10.284718 -21.424221 -0.97708732 18
10.662762 -21.207644 -0.80396199 13
10.745552 -21.27194 -0.89293551 19
10.375398 -21.473499 -0.8510319 17
10.608962 -21.144852 -1.0709462 13
10.805417 -21.381672 -0.81801432 20
10.835741 -21.4331 -0.90224832 30
10.405021 -21.601709 -0.92978102 13.5
10.756975 -21.412075 -0.73206967 19
10.638083 -21.379877 -0.66074634 12
10.4848 -21.644367 -0.67837119 28
10.39194 -21.597662 -0.78993732 14
10.768068 -21.274704 -1.0168177 12
10.8004 -21.303986 -0.91966182 20
10.704359 -21.245113 -0.80947167 21
10.341394 -21.483932 -0.91305774 14
10.390219 -21.511377 -0.90318483 14.5
10.292402 -21.447083 -0.83924311 13
10.377465 -21.49474 -0.90408993 14
10.673599 -21.240908 -0.6919682 18
10.376432 -21.495026 -0.73394567 11
10.443943 -21.529583 -0.63708526 22
10.83346 -21.445625 -1.0432289 24
10.258482 -21.490555 -1.1788113 13
10.823627 -21.415281 -0.9346751 23
10.744455 -21.369686 -0.84096581 22
10.438695 -21.635305 -0.89204663 9
10.343831 -21.581339 -0.99162173 8
10.658381 -21.385845 -0.7804051 13
10.516832 -21.675644 -0.79974234 28
10.592545 -21.6164 -0.93453288 16
10.742227 -21.260202 -0.78237414 25
10.588243 -21.261318 -0.67270643 17
10.47626 -21.558123 -0.71988517 14
10.552773 -21.598864 -0.84087193 10.5
10.742519 -21.248714 -0.82535571 29
10.57243 -21.595167 -0.87626475 22
10.659004 -21.211973 -0.71758908 20
10.479496 -21.546429 -0.7406292 29.5
10.780821 -21.400845 -0.80826694 19.5
10.586687 -21.738411 -0.81391984 21
10.632554 -21.765734 -0.86109555 21
10.71959 -21.369741 -0.73390514 28
10.553795 -21.419277 -0.70790452 14
10.529468 -21.667406 -0.73837453 19.5
10.659781 -21.237566 -0.74704182 4
10.566832 -21.272959 -0.71110451 1
10.661085 -21.481743 -0.74026155 1
10.528663 -21.444998 -0.71719384 1
10.441392 -21.558254 -0.73744309 1
10.75989 -21.393879 -0.80172604 2
10.726801 -21.479214 -0.84233087 2
10.64994 -21.584009 -0.84902972 2
10.691496 -21.259573 -0.76540923 2
10.551512 -21.266857 -0.75430435 1
10.528042 -21.587513 -0.78166181 2
10.641498 -21.184935 -0.73557168 2
10.70179 -21.262705 -0.77835768 2
10.495007 -21.231514 -0.72683078 1
10.72864 -21.440914 -0.746077 2
10.550486 -21.528217 -0.75143242 1
10.646973 -21.224277 -0.75494945 2
10.422762 -21.273039 -0.76316488 1
10.647264 -21.426584 -0.75618684 2
10.641456 -21.255112 -0.63280237 1
10.400576 -21.199455 -0.64830387 1
10.633739 -21.40192 -0.61684573 3
10.409377 -21.297148 -0.6144743 8
10.340767 -21.558701 -0.72973931 10.5
10.515673 -21.401861 -0.72150528 4.5
10.6502 -21.407909 -0.72156942 12
10.389701 -21.475756 -0.72554731 14.5
10.373825 -21.520239 -0.70820189 21
10.32848 -21.599846 -0.7112357 11
10.69608 -21.405764 -0.70326126 11.5
10.422289 -21.447744 -0.70543313 20
10.688984 -21.388283 -0.78929257 13
10.272504 -21.479591 -0.79588532 11
10.474113 -21.407192 -0.79143375 10
10.3287 -21.608091 -0.51648545 21
10.421171 -21.452831 -0.50728047 12
10.520783 -21.47086 -0.60100454 11.5
10.471217 -21.470219 -0.67792517 11.5
10.311356 -21.615356 -0.69352525 16
10.394224 -21.499022 -0.53990912 14
10.491227 -21.440277 -0.53354073 13
10.521628 -21.435232 -0.77664131 3.5
10.459749 -21.367113 -0.63424647 24.5
10.720468 -21.460407 -0.62677109 21
10.401608 -21.469467 -0.67147303 11
10.637081 -21.430698 -0.66563177 10
10.593057 -21.457199 -0.54045039 0
10.393161 -21.423916 -0.63283527 20
10.349691 -21.505095 -0.63687575 19
10.449281 -21.367437 -0.6296469 23
10.561419 -21.41675 -0.63000262 17
10.405178 -21.439318 -0.90883464 12.5
10.626494 -21.407904 -0.91041905 16
10.312636 -21.554663 -0.72556204 16.666666
10.607302 -21.458313 -0.70028514 18
10.355702 -21.517803 -0.55586553 19
10.573172 -21.358961 -0.52334583 14.5
10.424191 -21.405037 -0.54058361 23
10.517276 -21.407541 -0.73297679 2.333333
10.378541 -21.575525 -0.71234548 8
10.405778 -21.415508 -0.55352265 1
10.367433 -21.503752 -0.55889565 1
10.359142 -21.273232 -0.77574962 5
10.671068 -21.32712 -0.76786345 1
10.463961 -21.348907 -0.66663384 1
10.571346 -21.370749 -0.66493011 0
10.353928 -21.541998 -0.48782462 4
10.393721 -21.356462 -0.46904999 10.333333
10.206081 -21.473866 -0.84678936 0
10.381994 -21.254951 -0.75355524 9.666667
10.370337 -21.321501 -0.84786505 26
10.315763 -21.53373 -0.84745675 31
10.284075 -21.543699 -1.2372236 11.666667
10.359409 -21.457796 -0.48639977 6.5
10.327812 -21.394949 -0.56945556 4.666667
10.53694 -21.255274 -0.56967682 1
10.404936 -21.403139 -0.55469102 19
10.241646 -21.596506 -0.75660914 29
10.370811 -21.453318 -0.73836511 22.5
10.344894 -21.618441 -0.74365127 1.666667
10.367876 -21.306454 -0.68137968 16
10.261133 -21.776997 -0.78559911 28
10.356291 -21.674355 -0.77952993 20
10.3106 -21.389395 -0.53487784 24
10.341576 -21.593296 -0.56629616 16
10.362225 -21.285179 -0.68892157 6
10.261005 -21.672308 -0.715159 3
10.273827 -21.472931 -0.69181639 22
10.323467 -21.371494 -0.47391522 3
10.243439 -21.555965 -0.66906083 20
10.49585 -21.784508 -0.69974148 3
10.332329 -21.364197 -0.64604437 24
10.398331 -21.270351 -0.81613034 3
10.382328 -21.236086 -0.5782336 8
10.357231 -21.21521 -0.61678278 16.5
10.42482 -21.52293 -0.65958512 11
10.468433 -21.517679 -0.60775417 7
10.419708 -21.395565 -0.79304945 11
10.430168 -21.514538 -0.64760524 16
10.271416 -21.311234 -0.6029467 27
10.463955 -21.515505 -0.70011771 12
10.291725 -21.43536 -0.72203732 27
10.421692 -21.637842 -0.77153897 16
10.291065 -21.506332 -0.58179009 27
10.478794 -21.700682 -0.63661075 13
10.256935 -21.529263 -0.789168 11
10.353973 -21.303993 -0.74563515 19
10.455864 -21.634489 -0.58355665 3
10.333611 -21.432699 -0.53827167 22
10.448017 -21.506975 -0.77099621 7
10.379379 -21.460371 -0.76044244 20
10.289894 -21.511032 -0.90914959 9
10.37606 -21.286259 -0.86130255 19
10.363892 -21.410645 -0.54171437 4
10.259293 -21.353098 -0.79468799 19
10.328644 -21.491545 -0.60586816 30
10.414078 -21.562466 -0.66821498 17.5
10.355148 -21.253531 -0.57583231 15
10.402916 -21.490082 -0.7223959 14
10.353081 -21.587517 -0.74354625 21
10.323105 -21.379223 -0.68625033 23
10.284054 -21.290146 -0.77002984 20
10.245853 -21.374889 -0.90691584 20
10.492985 -21.549953 -0.95618242 2
10.364151 -21.570929 -0.5038414 16.5
10.348297 -21.402058 -0.48870271 9
10.374729 -21.365372 -0.7547676 8
10.324299 -21.364216 -0.59551102 23.5
10.293934 -21.524265 -0.74134266 21
10.324963 -21.55489 -0.78640747 19
10.337704 -21.33238 -0.76027274 18
10.332649 -21.510645 -0.58442581 25
10.31031 -21.516018 -0.72944379 22
10.268517 -21.350756 -0.74260652 9
10.328732 -21.492163 -0.75665069 23
10.328476 -21.59827 -0.88272685 7
10.400902 -21.366899 -0.81766051 18
10.377029 -21.493116 -0.7194252 18
10.268227 -21.303534 -0.66131222 22
10.475506 -21.690388 -0.71899045 16
10.361698 -21.503765 -0.65779316 20
10.244404 -21.335802 -0.65131998 26
10.38628 -21.508484 -0.72803164 23
10.252815 -21.325401 -0.59509242 18.5
10.362942 -21.462973 -0.80104148 16
10.274826 -21.452074 -0.74795598 19
10.363388 -21.19878 -0.6839785 12
10.283627 -21.427967 -0.65810114 24
10.277988 -21.309689 -0.54545736 15
10.503513 -21.635723 -0.79901797 16
10.312374 -21.361834 -0.7090978 18
10.409424 -21.563633 -0.55239379 11
10.323933 -21.518806 -0.80814111 27
10.309757 -21.294733 -0.75156903 21
10.32 -21.447973 -1.0022144 7
10.259613 -21.367369 -0.67808414 20
10.305702 -21.425343 -0.58480185 14
10.363544 -21.506702 -0.71860796 19
10.36269 -21.474636 -0.70979261 21
10.489101 -21.598186 -0.81837809 9
10.309025 -21.446028 -0.75984251 16
10.334717 -21.417349 -0.65147614 23
10.351128 -21.570221 -0.63863432 8
10.290428 -21.54525 -0.91271347 14
10.373756 -21.441772 -0.66358781 8
10.26292 -21.593426 -0.94622093 13
10.194569 -21.523582 -0.95382744 15.5
10.357281 -21.434505 -0.92725182 8
10.415054 -21.1604 -0.91135216 3
10.482536 -21.549747 -0.73014987 22
10.338501 -21.40485 -0.71531165 24
10.367195 -21.624165 -0.76181662 12
10.324806 -21.299591 -0.7411772 4
10.349304 -21.522327 -0.71328253 11
10.367729 -21.494442 -0.85608888 9.5
10.423222 -21.640999 -0.71708703 13
10.294086 -21.489494 -0.70784593 12
10.405373 -21.684795 -0.77847457 8.5
10.256287 -21.430641 -0.7633903 5
10.418213 -21.728062 -0.80732274 10
10.266209 -21.592159 -0.79475904 12
10.396187 -21.519962 -0.73648375 11
10.496807 -21.688606 -0.81180996 11
10.325275 -21.566242 -0.78666824 12
10.397266 -21.536297 -0.94329953 7.5
10.432198 -21.683407 -0.87081796 14.5
10.294228 -21.41951 -0.82888013 9
10.342533 -21.64381 -0.73889911 15
10.51807 -21.632645 -0.93592769 15
10.32819 -21.518532 -0.90014201 23
10.360153 -21.262653 -0.871898 14
10.575245 -21.533669 -0.90738076 23
10.415272 -21.281769 -0.8692643 18.5
10.560326 -21.61021 -0.91716951 11
10.423183 -21.229473 -0.8791284 5
10.370724 -21.497196 -0.89408106 11
10.436604 -21.764126 -0.88702482 12
10.268311 -21.519588 -0.85314459 9.5
10.373661 -21.701839 -1.0894258 6
10.432873 -21.483185 -0.83535212 28
10.311893 -21.323074 -0.81959552 21
10.279942 -21.686153 -0.7716701 17
10.482792 -21.805119 -1.1399628 4
10.358616 -21.699944 -0.85996437 29
10.230209 -21.541992 -0.84121323 21
10.506073 -21.593464 -0.88073814 27
10.386787 -21.190094 -0.8693341 10
10.32703 -21.658531 -0.93270862 23.5
10.348343 -21.28566 -0.92308891 5
10.508789 -21.409542 -0.76497126 16.5
10.440128 -21.644997 -1.0741858 7
10.462326 -21.698223 -1.0956916 6
10.463314 -21.521332 -0.77881604 13
10.362556 -21.361389 -0.75521451 10
10.518169 -21.771793 -0.91218889 9
10.31258 -21.573902 -0.87911069 10.5
10.337315 -21.456127 -0.95376265 13
10.544842 -21.64883 -1.0050031 3
10.3167 -21.357849 -0.96478856 3
10.451641 -21.658337 -0.83061105 12
10.279903 -21.448277 -0.79151422 5
10.52557 -21.463966 -1.001266 12
10.370987 -21.247574 -0.96534872 10
10.372204 -21.399437 -0.94078112 9.5
10.465805 -21.654549 -0.91635132 12
10.374775 -21.403336 -0.88505745 8
10.493908 -21.730732 -0.82761419 15
10.363068 -21.510769 -0.800403 10.5
10.40321 -21.686157 -0.88977259 13
10.29583 -21.556431 -0.87059039 7
10.397354 -21.553364 -1.0688716 14.5
10.353626 -21.649155 -0.76074803 4
10.583134 -21.706345 -0.9268347 2
10.2938 -21.511684 -0.88753188 16
10.369614 -21.243279 -0.87761748 6
10.444506 -21.676117 -1.0953431 3
10.344545 -21.548447 -1.0773759 5
10.453344 -21.769405 -0.88642102 15
10.263281 -21.6161 -0.85305673 13
10.600933 -21.613869 -0.93008924 12
10.391972 -21.477173 -0.89688611 14.5
10.609253 -21.549828 -1.0364916 8
10.45039 -21.168629 -0.9852832 5
10.488171 -21.549728 -0.99393642 8
10.379757 -21.434448 -0.97491539 12
10.336296 -21.723934 -0.81468284 14
10.416271 -21.570427 -0.82161409 15.5
10.530024 -21.48798 -1.0776223 16
10.38175 -21.205177 -1.0404094 9.5
10.524902 -21.801281 -0.84403396 18
10.36121 -21.333168 -0.80399776 1
10.322289 -21.668217 -0.81875491 17.5
10.552462 -21.640404 -0.99804854 12
10.353201 -21.515366 -0.96529651 13
10.51767 -21.535482 -0.73612237 4.666667
10.475908 -21.708181 -0.90475506 13
10.294695 -21.473398 -0.8842749 7
10.64793 -21.545328 -0.77248669 4
10.40963 -21.461727 -0.75152016 16.5
10.493156 -21.705788 -0.90746713 16
10.312447 -21.476082 -0.88007092 8
10.419609 -21.738338 -1.0575018 11.5
10.278313 -21.574825 -1.0314913 14
10.378618 -21.592894 -0.87674403 18.5
10.311983 -21.363632 -0.85860515 6
10.501394 -21.588718 -0.72906637 13
10.47106 -21.642355 -1.0326927 16
10.365858 -21.451496 -1.0061615 10
10.403038 -21.706631 -1.0276186 20
10.308601 -21.504566 -1.0094335 12
10.504774 -21.494764 -0.89868677 18
10.509432 -21.573463 -1.0972158 12.666667
10.401476 -21.29607 -1.0541545 2
10.617353 -21.700163 -0.66597676 12
10.456469 -21.565832 -0.63409448 11.5
10.440519 -21.601398 -1.0789274 14.5
10.440809 -21.644262 -0.93414092 11.5
10.442474 -21.70171 -0.95192802 12.333333
10.327934 -21.431822 -0.93382919 4
10.525925 -21.688107 -0.75112903 10
10.372143 -21.550364 -0.73127735 11
10.306942 -21.576485 -0.98138094 11.5
10.448456 -21.708429 -0.78614485 15
10.295509 -21.568748 -0.76761115 13
10.413488 -21.653654 -0.77178788 14
10.363634 -21.526865 -0.70067561 9
10.29538 -21.73106 -0.83295661 17
10.49563 -21.654718 -1.0562092 19
10.310091 -21.540741 -1.018828 21.5
10.602659 -21.65811 -0.95472729 18
10.405443 -21.45933 -0.91244996 25.666666
10.395002 -21.763575 -0.98689902 15
10.258116 -21.607628 -0.9564234 11.5
10.583776 -21.782595 -1.0576783 3
10.380625 -21.778393 -1.0316173 23
10.215136 -21.549742 -0.99415696 18
10.292679 -21.632004 -1.0925654 18
10.332178 -21.616318 -1.0962015 19
10.329939 -21.482838 -1.1013296 21
10.507284 -21.576914 -0.8882457 23
10.37649 -21.41707 -0.84663832 19
10.445911 -21.593294 -1.0275397 13
10.41927 -21.243254 -0.9821887 4
10.410179 -21.647526 -1.034348 27
10.319305 -21.445572 -1.0078292 14.5
10.604076 -21.669022 -0.82495987 16
10.347931 -21.52589 -0.784536 26
10.693819 -21.524696 -0.93076229 16
10.512758 -21.409039 -0.9044981 18.5
10.479105 -21.153872 -0.88684559 6
10.507284 -21.539574 -0.95134044 11.5
10.394491 -21.262751 -0.93467307 6
10.356024 -21.794306 -0.77503949 19
10.280294 -21.676201 -0.76317102 16
10.577671 -21.704472 -0.85627586 14
10.399303 -21.589821 -0.82594043 16
10.360455 -21.344696 -0.80295497 5
10.542747 -21.652756 -1.0366924 11
10.344154 -21.557163 -1.0018995 12
10.452875 -21.447685 -0.69157076 8.5
10.560408 -21.63851 -0.69471812 11
10.377554 -21.523716 -0.6852386 17
10.38612 -21.629477 -0.66985732 3
10.521076 -21.693539 -0.68440849 4
10.310072 -21.640812 -0.90648651 18
10.503164 -21.745064 -0.93574333 16
10.376097 -21.294157 -0.89212132 5
10.628626 -21.659178 -0.74378932 5
10.356543 -21.625511 -0.71451342 3
10.593279 -21.63792 -0.80369031 11
10.345804 -21.487288 -0.77249849 16
10.453735 -21.680273 -0.92100692 18
10.329891 -21.604916 -0.90919566 20
10.571552 -21.761513 -0.93237662 4
10.299244 -21.442621 -0.90289664 6
10.373833 -21.556101 -0.84771097 15
10.528528 -21.76428 -0.98066282 9.5
10.293688 -21.607803 -0.93517828 16.5
10.257385 -21.73419 -0.82704175 19.5
10.267481 -21.668768 -0.95307648 18
10.311228 -21.628094 -0.95563805 11.5
10.34741 -21.645758 -0.96055651 17.5
10.31391 -21.393892 -0.92894316 6
10.526066 -21.377405 -0.71940172 2.5
10.452929 -21.502562 -0.92274892 18
10.355978 -21.307898 -0.90389574 6
10.577997 -21.762508 -0.78210688 3
10.319338 -21.528671 -0.74938726 12
10.406595 -21.73106 -0.85751748 22
10.290537 -21.552088 -0.84311414 16
10.503382 -21.655096 -0.68234956 4
10.34337 -21.699036 -0.89723647 27.666666
10.32305 -21.333557 -0.88265669 6
10.335661 -21.799681 -1.0815699 17
10.224051 -21.615801 -1.0621054 21
10.47644 -21.728508 -0.76392627 20
10.301243 -21.602667 -0.73933053 22.5
10.271385 -21.644459 -1.0900238 15.5
10.239826 -21.57287 -1.1187789 6
10.380547 -21.549337 -0.71581101 19
10.501087 -21.682888 -0.90592861 32
10.37962 -21.60397 -0.88675451 37
10.397682 -21.200588 -0.86329269 2
10.488487 -21.623341 -0.75082231 17
10.344185 -21.470139 -0.72364163 12.5
10.247826 -21.466927 -1.1009892 8
10.500017 -21.675259 -0.87909472 28
10.325438 -21.550955 -0.85315716 26.5
10.591457 -21.719204 -1.0224116 6
10.360111 -21.552391 -0.98859811 16
10.536419 -21.668394 -1.1111938 9
10.322025 -21.392296 -1.0724288 12
10.574926 -21.757675 -1.1134636 7
10.373827 -21.662004 -1.0833762 20
10.327196 -21.517048 -1.0687048 14
10.491579 -21.733572 -0.94034851 15.5
10.313456 -21.524815 -0.90207565 12
10.26182 -21.521101 -1.1194829 5
10.577702 -21.786077 -0.92778528 7
10.393547 -21.676455 -0.89657533 17.5
10.308296 -21.474878 -0.87082231 5
10.421055 -21.721432 -0.98107648 15
10.258785 -21.59445 -0.94487977 10
10.512396 -21.739782 -0.98292029 12
10.335413 -21.626101 -0.94611228 11.5
10.463905 -21.686069 -0.99510443 10.5
10.29565 -21.564577 -0.95866358 10
10.413416 -21.573946 -0.73210865 8.333333
10.415554 -21.685839 -0.8279413 15
10.326996 -21.583162 -0.8036741 13
10.455153 -21.685541 -0.69039536 4
10.41095 -21.723623 -0.90458322 15.5
10.267349 -21.578674 -0.8714993 10
10.481241 -21.726309 -0.96275133 13
10.314169 -21.602907 -0.9291591 12
10.319517 -21.62624 -1.0635495 12.5
10.51178 -21.757704 -0.98219138 16
10.310822 -21.476574 -0.9352811 9.5
10.391138 -21.637463 -0.94639832 16
10.374697 -21.277821 -0.91451889 4
10.26359 -21.569633 -0.92364269 15
10.575283 -21.683411 -0.88193476 9
10.441628 -21.620306 -0.86126196 16
10.302158 -21.469246 -0.83352244 10.5
10.397764 -21.572367 -0.80710554 11
10.209368 -21.566011 -1.1426244 3
10.559927 -21.759134 -0.92791378 10
10.421537 -21.696507 -0.90656197 33
10.282328 -21.539454 -0.87839615 22.5
10.538477 -21.760057 -0.92364657 15
10.291285 -21.514297 -0.87084115 20
10.573921 -21.706402 -0.843898 10
10.359612 -21.620483 -0.80759639 29
10.299599 -21.390686 -0.779535 12
10.476368 -21.685133 -1.0067458 24
10.340954 -21.620317 -0.98459911 28
10.292904 -21.474047 -0.96768093 15
10.533173 -21.73341 -0.84475029 21
10.392509 -21.674145 -0.81805265 32
10.304359 -21.566355 -0.79424942 28
10.326033 -21.620733 -0.87255806 27
10.364737 -21.297581 -0.84828371 6
10.396772 -21.638283 -0.77236444 28.333334
10.541103 -21.656384 -0.7143566 18
10.33651 -21.560846 -0.68072194 18.5
10.338261 -21.618532 -0.93425381 29.5
10.377232 -21.295353 -0.91048539 6
10.538164 -21.746283 -0.85952306 15
10.319067 -21.56999 -0.80824876 25
10.435472 -21.653175 -1.0729109 20
10.360643 -21.621258 -0.8943181 27
10.446455 -21.609961 -1.0246638 18.666666
10.346159 -21.325319 -0.97233379 8
10.603737 -21.723101 -0.9375546 3
10.349709 -21.581411 -0.88167882 30
10.282185 -21.455198 -0.85715032 15
10.309391 -21.61492 -0.89045453 21
10.357807 -21.284447 -0.86621976 3
10.403582 -21.646339 -1.0887369 17
10.328371 -21.528847 -1.0625709 14
10.444563 -21.665554 -0.98382199 13.5
10.297445 -21.522713 -0.94487393 11
10.501419 -21.700895 -0.79501581 13
10.345982 -21.563782 -0.75879335 15.5
10.330448 -21.717896 -1.1361191 5
10.313877 -21.546089 -1.1163685 10
10.308216 -21.363171 -1.0971339 7
10.483713 -21.670326 -0.84101272 17
10.350931 -21.513857 -0.8044889 16
10.594828 -21.670549 -0.81242776 10
10.429861 -21.637989 -0.78309369 18
10.370131 -21.507923 -0.75939202 14
10.438511 -21.691607 -1.010496 15
10.306255 -21.535465 -0.97581089 10
10.290352 -21.556513 -0.99378633 11
10.542751 -21.74931 -0.98966146 10
10.304455 -21.503553 -0.92930818 11.5
10.578905 -21.777634 -0.92171425 2
10.288591 -21.581125 -0.85627788 13.5
10.430758 -21.581352 -0.72617018 5.5
10.482487 -21.666893 -0.98997295 12
10.320393 -21.537445 -0.95318019 12.5
10.443697 -21.623114 -1.0047044 13.5
10.299345 -21.475075 -0.9730233 11
10.453688 -21.701727 -1.0107841 12
10.298059 -21.564451 -0.97723389 11.5
10.434986 -21.740225 -0.83302689 17.5
10.298668 -21.585234 -0.79960155 16
10.40329 -21.643061 -0.72218406 16
10.354095 -21.500973 -0.70153987 9
10.598797 -21.649645 -0.75046241 9
10.31522 -21.614962 -0.80574596 18
10.559811 -21.764307 -0.85605514 7
10.464417 -21.695847 -0.89161491 23
10.299335 -21.566013 -0.85471439 18.5
10.558332 -21.701073 -1.0589906 10.5
10.316774 -21.546328 -1.0077144 23
10.548882 -21.653988 -0.80632818 19
10.353718 -21.550646 -0.7691468 28
10.372488 -21.624477 -1.0567471 17
10.506296 -21.68812 -1.083881 11
10.323202 -21.482191 -1.0347964 14
10.505602 -21.699656 -0.94366038 17
10.322325 -21.58816 -0.90445387 18
10.368643 -21.261194 -0.8782593 3
10.463007 -21.629194 -0.7210753 3
10.45787 -21.647743 -0.68979824 4
10.508247 -21.699114 -0.91205907 21
10.373543 -21.634867 -0.88875318 22
10.386131 -21.242247 -0.85770774 2
10.265022 -21.546595 -0.86687732 20
10.416267 -21.628609 -0.98870456 28
10.304642 -21.542686 -0.96616876 22
10.347046 -21.31201 -0.95268476 9
10.406565 -21.646183 -0.94429082 28
10.346025 -21.32106 -0.90638179 8
10.29196 -21.562798 -0.92051381 22
10.45784 -21.656889 -1.0210173 24
10.267853 -21.450583 -0.98110318 15
10.449648 -21.573664 -0.73841774 8
10.387449 -21.441458 -0.71857464 3
10.480095 -21.684475 -1.0164002 14.5
10.330471 -21.350296 -0.96469915 8
10.434713 -21.705105 -1.1665083 14
10.271883 -21.5742 -1.1294399 15
10.366337 -21.547697 -0.99986601 12.333333
10.661648 -21.650768 -1.0448518 2
10.393795 -21.516171 -0.93831718 19.666666
10.375784 -21.617586 -0.7711556 13
10.325262 -21.474651 -0.75729489 9
10.563297 -21.797964 -0.79156852 2
10.327705 -21.639057 -0.75108123 10.666667
10.33786 -21.606394 -0.84554541 12.5
10.256275 -21.682676 -0.84092963 18
10.386889 -21.732075 -1.0723068 10.5
10.295248 -21.532881 -1.0564166 13
10.456278 -21.589209 -1.0511612 16
10.340197 -21.414301 -1.0265859 9.5
10.587187 -21.627327 -0.82949495 16
10.410921 -21.509827 -0.78714991 17.5
10.523205 -21.576391 -0.68788183 7
10.449921 -21.455854 -0.66237676 3
10.600286 -21.565117 -0.72173607 3
10.635822 -21.573709 -0.71722567 2
10.451395 -21.732498 -0.77626359 20
10.328588 -21.657843 -0.75446546 18
10.293142 -21.501682 -0.73709714 9
10.553431 -21.713398 -1.071081 11
10.343111 -21.625631 -1.0395888 15.5
10.527212 -21.765961 -0.69148195 9
10.37808 -21.715157 -0.67243326 8
10.328524 -21.572495 -0.65845907 3
10.317556 -21.636955 -0.94289923 21
10.359781 -21.597591 -0.94541025 14.5
10.606703 -21.761232 -1.0795144 9
10.34926 -21.621237 -1.0354341 20
10.293188 -21.483793 -1.0179433 15
10.464426 -21.674709 -1.0810355 18.5
10.303339 -21.540342 -1.0479645 16
10.27953 -21.610613 -0.99629974 16.5
10.499916 -21.755823 -0.80614626 20
10.329212 -21.631464 -0.76742613 21.5
10.329922 -21.346409 -0.73775876 2
10.493551 -21.631216 -0.71608138 22.5
10.358591 -21.472717 -0.67715383 19
10.507223 -21.642412 -0.95896339 28
10.326712 -21.525887 -0.91815996 27.5
10.38666 -21.182161 -0.8914299 3
10.415508 -21.570818 -0.94016504 26
10.394016 -21.208179 -0.89922523 8
10.267811 -21.611368 -1.134351 5.5
10.235458 -21.353077 -1.1102536 7
10.468798 -21.682121 -0.94166601 20.5
10.339655 -21.318853 -0.90565622 8
10.272741 -21.575558 -0.91306293 27
10.320601 -21.669685 -1.0976381 12
10.268396 -21.525005 -1.0843608 15
10.418673 -21.745457 -0.94494295 30
10.259474 -21.60458 -0.91500854 26.5
10.385241 -21.714441 -0.91626179 33
10.328054 -21.286295 -0.86852932 2
10.216581 -21.583698 -0.88004541 21
10.441614 -21.606613 -0.98472095 27
10.315844 -21.534916 -0.95588565 28
10.349638 -21.31271 -0.9366405 11
10.523268 -21.55514 -0.68208921 1
10.276026 -21.535376 -1.0746883 7
10.391081 -21.529425 -0.7362417 20.666666
10.354053 -21.510496 -0.81632698 27
10.359749 -21.521248 -0.96649301 20.666666
10.348906 -21.523113 -1.0275421 20.333334
10.392075 -21.661221 -1.0979335 16
10.295174 -21.36787 -1.0591478 19
10.48036 -21.651958 -0.81712389 28.5
10.395891 -21.565489 -0.73401654 15.5
10.384281 -21.613997 -0.9863956 28
10.285904 -21.41914 -0.95516944 14
10.323647 -21.68042 -1.0939372 12
10.290401 -21.520578 -1.0754926 18
10.398214 -21.583813 -0.69167697 22
10.485716 -21.61381 -0.7503711 23.5
10.336039 -21.464001 -0.72502863 26
10.399122 -21.617998 -0.99503028 24.333334
10.335211 -21.290621 -0.96896064 8
10.402285 -21.6483 -1.0148828 27
10.308805 -21.447132 -0.98866248 17
10.425795 -21.527367 -0.69066298 7.666667
10.348833 -21.54014 -0.93320274 24.333334
10.195276 -21.53648 -1.105268 3
10.478579 -21.66641 -0.91832042 21.666666
10.379866 -21.179855 -0.87778258 1
10.252085 -21.493887 -0.88177848 22
10.442686 -21.639826 -0.76141346 26
10.348005 -21.53723 -0.74106109 27
10.523285 -21.669451 -1.089066 13.5
10.332047 -21.561621 -1.0534105 26
10.447439 -21.627022 -0.86747432 23.666666
10.409342 -21.625288 -0.77625942 28.5
10.488457 -21.713875 -1.0554622 17
10.340744 -21.659389 -1.0355648 28
10.286301 -21.518076 -1.0216159 26
10.39942 -21.673214 -0.90040779 32
10.491991 -21.707487 -0.81794977 19
10.293493 -21.639099 -1.0949408 4
10.227339 -21.508715 -1.0771471 5
10.567776 -21.588676 -0.64302707 2
10.512877 -21.597794 -0.74733162 12
10.430693 -21.667398 -0.92188299 29.5
10.25915 -21.542807 -0.88501728 25
10.349051 -21.538197 -1.015268 15
10.534176 -21.536612 -0.65082765 1
10.362032 -21.394238 -1.0260013 20
10.500126 -21.51475 -0.75315404 30
10.379688 -21.437962 -0.72651744 27
10.223478 -21.437593 -1.1271157 6
10.559435 -21.688784 -1.0695722 13
10.344244 -21.604763 -1.0307696 20.5
10.593571 -21.662525 -0.69567144 2
10.535313 -21.549271 -0.89487827 18
10.406136 -21.48061 -0.87480628 20
10.426233 -21.441856 -0.72552574 20
10.375635 -21.300253 -0.70673549 13
10.430727 -21.494028 -0.80089772 24.5
10.62216 -21.600454 -0.82820094 9
10.357904 -21.275789 -0.78012192 9
10.375553 -21.639509 -1.1063087 13.5
10.464359 -21.657686 -0.83354831 19
10.360458 -21.278959 -0.80060458 2
10.375786 -21.661755 -0.77936208 24
10.310043 -21.53233 -0.76895034 20
10.531898 -21.707052 -0.79467762 16
10.370316 -21.686775 -0.75209355 17
10.367207 -21.563694 -0.93564868 21
10.440445 -21.601833 -0.82425785 27
10.354061 -21.298258 -0.80065012 10
10.534254 -21.627743 -0.89039123 20
10.346575 -21.514183 -0.87169635 24.5
10.447628 -21.753723 -0.83331871 29
10.257401 -21.543406 -0.82169127 16
10.228491 -21.64554 -1.0834378 20
10.351927 -21.808134 -0.94335306 21.5
10.242687 -21.643457 -1.1199224 9
10.549004 -21.752584 -0.77639937 13
10.359505 -21.641998 -0.72878075 23
10.455036 -21.713449 -1.0804763 18
10.310596 -21.561152 -1.0357506 24
10.285322 -21.444128 -0.93826187 25.5
10.335073 -21.380524 -0.67084956 15
10.503656 -21.414433 -0.70029366 15
10.282061 -21.744177 -1.0895066 3
10.26745 -21.371273 -1.0556569 29
10.485147 -21.55225 -0.86696362 15.5
10.303461 -21.433115 -0.83324265 36
10.513723 -21.623713 -0.84713018 19
10.386 -21.550123 -0.82661831 36
10.328106 -21.65868 -0.84541261 27.333334
10.259569 -21.69383 -1.0791196 14
10.306543 -21.375969 -0.90422463 23.666666
10.713675 -21.612051 -1.1008343 2
10.366304 -21.547729 -1.0591558 22
10.292574 -21.684212 -0.83272362 29
10.402464 -21.711897 -0.77693212 29
10.348257 -21.613455 -1.0872159 23.666666
10.535873 -21.459217 -0.67275369 4
10.373953 -21.416088 -0.88212526 25.5
10.404232 -21.502758 -1.0980259 7
10.245327 -21.360207 -1.0808586 16
10.279921 -21.305119 -0.9748019 18.333334
10.447714 -21.604769 -0.7613889 25
10.43874 -21.603004 -0.84651184 27.5
10.288677 -21.456156 -0.81272173 30
10.341967 -21.538107 -0.98857141 21.333334
10.455355 -21.588173 -1.0975982 14
10.282362 -21.367632 -1.0574914 19.5
10.337523 -21.664381 -0.79622459 31
10.25115 -21.553753 -0.77744961 26
10.514406 -21.653282 -0.87217069 25
10.259203 -21.508493 -0.84460616 29
10.518911 -21.593563 -0.69498515 11
10.382681 -21.529484 -0.68088651 10
10.606789 -21.534702 -0.71614695 8
10.391563 -21.544401 -0.70077705 18
10.336246 -21.403891 -0.6940589 17
10.572683 -21.634811 -0.70795715 13
10.36804 -21.538261 -0.68808067 14.5
10.495552 -21.74439 -0.9905777 15
10.298756 -21.543724 -0.95579529 19.333334
10.493338 -21.661366 -1.0925596 19
10.268057 -21.488689 -1.0503609 22
10.525784 -21.630049 -0.83141589 21
10.295399 -21.464243 -0.78620839 26
10.567623 -21.6653 -0.80657911 11
10.357891 -21.574228 -0.77679682 28.5
10.3454 -21.608763 -0.80515265 29.5
10.364683 -21.714947 -1.0507625 14.5
10.241892 -21.544304 -1.0280527 9
10.472015 -21.764402 -1.1793568 10.333333
10.286667 -21.496767 -1.1392958 12
10.682034 -21.69549 -1.2015212 2
10.330204 -21.6078 -0.8450166 17
10.35955 -21.296471 -0.82666886 4
10.527769 -21.693062 -0.831429 16
10.348597 -21.579044 -0.80164957 18
10.488972 -21.554876 -1.0377283 12
10.295246 -21.359123 -1.0004416 11
10.520067 -21.633154 -0.99923503 15
10.26956 -21.493095 -0.95997894 19
10.358152 -21.219744 -0.95342052 5
10.494486 -21.566341 -0.66662979 8.5
10.589684 -21.653303 -0.72528762 15
10.410042 -21.542562 -0.69118804 18.5
10.509041 -21.699268 -0.95267391 17.5
10.336061 -21.580635 -0.94129038 20
10.494312 -21.591568 -0.79546356 25
10.365284 -21.526363 -0.78651476 33
10.276264 -21.422655 -0.77979183 26
10.32415 -21.475136 -0.98564756 15
10.543228 -21.795481 -0.75042725 16
10.338152 -21.712069 -0.7422471 23
10.31024 -21.456617 -0.74422646 8
10.365538 -21.709774 -0.82985592 29
10.371382 -21.326097 -0.82718754 4
10.336983 -21.507719 -0.88438737 29
10.555429 -21.536346 -0.82210946 15
10.311054 -21.405161 -0.8057878 34
10.388357 -21.712147 -0.82606959 33
10.336443 -21.483068 -0.69097805 25.5
10.599302 -21.549414 -0.77234852 9
10.444586 -21.521881 -0.76061022 36
10.302242 -21.387804 -0.74838507 26.5
10.47703 -21.748709 -0.83136904 26.5
10.349035 -21.601835 -0.81605017 24
10.353714 -21.506556 -1.0707357 21
10.496056 -21.515179 -0.93856663 19
10.32436 -21.425549 -0.94678777 27.5
10.406701 -21.408825 -0.97242057 20.333334
10.440624 -21.799652 -0.90124464 30.5
10.232561 -21.574202 -0.87261772 12
10.526485 -21.452286 -0.88653958 26
10.346758 -21.385456 -0.86935389 35
10.247723 -21.502241 -0.88353449 6
10.300762 -21.80155 -0.92020565 33
10.432576 -21.449736 -1.0954792 17.5
10.503396 -21.801357 -0.8560304 11
10.56208 -21.691841 -0.82840103 20
10.365211 -21.574259 -0.80179304 21
10.328354 -21.427271 -0.79266208 10
10.636287 -21.513077 -0.63934237 18
10.429864 -21.500475 -0.62143427 17
10.342749 -21.530443 -1.2790911 26
10.385855 -21.434696 -1.0096495 15.333333
10.537115 -21.616821 -0.84646952 18
10.346542 -21.508469 -0.81048071 15.5
10.285622 -21.476147 -0.90413988 24
10.526914 -21.578449 -0.59797525 16
10.354204 -21.318201 -0.67470306 2
10.475105 -21.591436 -0.88954872 20.5
10.462361 -21.445417 -0.65899861 26.75
10.389252 -21.39529 -0.80628705 31.25
10.411503 -21.631792 -0.90686631 31
10.446763 -21.568089 -0.67630184 27.333334
10.392895 -21.436888 -0.92771989 32.5
10.258982 -21.365593 -0.92257601 32
10.625883 -21.659752 -0.77500409 28
10.427142 -21.603477 -0.76197833 33.666668
10.283948 -21.449738 -0.75391167 1
10.507937 -21.700951 -0.8352496 26
10.468404 -21.555265 -1.0584476 26
10.319994 -21.415131 -1.0384309 19
10.595343 -21.606184 -1.0153607 7.5
10.388159 -21.377821 -0.97361362 26.5
10.368755 -21.778917 -0.76349932 32.666668
10.372826 -21.60618 -0.80159032 27.333334
10.524955 -21.629858 -0.82154649 1
10.32109 -21.500864 -0.79900163 23.5
10.582084 -21.445103 -0.80445993 2
10.284057 -21.405037 -0.76058376 6
10.663219 -21.495651 -1.0892806 3
10.453688 -21.719135 -1.180064 10.666667
10.525002 -21.481762 -1.0219439 14.5
10.31628 -21.482622 -1.0108055 7
10.316607 -21.30229 -1.0648723 13.333333
10.531934 -21.512394 -1.0642232 9
10.482497 -21.510607 -1.1231604 19.799999
10.511406 -21.612217 -0.75999022 35
10.402146 -21.524546 -0.7577796 18
10.746694 -21.536903 -0.77303314 3
10.6172 -21.564466 -0.98487669 21
10.453456 -21.488455 -0.97756344 16
10.408731 -21.5723 -1.0273232 16.666666
10.552954 -21.643227 -0.67018557 20.5
10.331594 -21.491835 -0.65460634 6
10.610279 -21.60117 -0.76589572 25
10.385778 -21.467499 -0.74364173 21.5
10.683998 -21.532814 -0.75862598 21
10.528878 -21.569498 -0.74488235 20
10.410557 -21.518221 -0.7357688 29
10.494214 -21.788752 -1.0901295 11.25
10.324704 -21.640467 -1.077665 25
10.739678 -21.634586 -1.0380548 5.666667
10.557406 -21.631126 -1.0296568 20
10.239788 -21.512093 -1.0199021 9.8000002
10.638062 -21.354244 -0.7103827 1
10.71619 -21.514328 -0.7516762 29.5
10.554667 -21.365154 -0.74591315 21
10.481879 -21.758165 -0.7885648 9
10.252414 -21.745338 -0.76050389 18.333334
10.544144 -21.492996 -0.58040965 1
10.517059 -21.611919 -0.92354989 14.666667
10.73496 -21.520609 -0.84048021 20
10.609825 -21.406954 -0.82060993 14.333333
10.655068 -21.62697 -0.84087884 2
10.376144 -21.598423 -0.81373394 20
10.268733 -21.553234 -0.80371177 14
10.542261 -21.677177 -0.92503917 12
10.29648 -21.559429 -0.9142226 1
10.581223 -21.605721 -0.97376066 19.5
10.677725 -21.542849 -1.0051923 6
10.537724 -21.597055 -0.99227005 23.5
10.551416 -21.55863 -0.81728292 25.5
10.502391 -21.640162 -0.86985779 23.75
10.567939 -21.604292 -0.91963267 21
10.403673 -21.513235 -0.91212845 30
10.843351 -21.402756 -0.83238208 0
10.579317 -21.611361 -0.80988371 23
10.377388 -21.526213 -0.79985368 27.5
10.544126 -21.558426 -1.0126806 25
10.452349 -21.490278 -1.0063261 14.5
10.578258 -21.64032 -0.95687258 16
10.400024 -21.610003 -0.95024455 27.5
10.489042 -21.677849 -0.86255032 19
10.258099 -21.550776 -0.85467678 30
10.493586 -21.56591 -0.90227091 26.6
10.305145 -21.467312 -0.89113533 23
10.597213 -21.522745 -1.0331614 22.666666
10.387136 -21.34553 -1.0239573 17
10.236263 -21.391357 -1.0588909 11.333333
10.581799 -21.70336 -1.0706803 19
10.326745 -21.564634 -1.0580291 8
10.329988 -21.681105 -1.0549074 11
10.718006 -21.541864 -0.71319234 2
10.471295 -21.549046 -0.69274914 12.5
10.622182 -21.564163 -1.0629685 25.5
10.427282 -21.4834 -1.0510612 17
10.814182 -21.409941 -0.99363697 11
10.67268 -21.645971 -0.97405016 3
10.517141 -21.560812 -0.96621621 34.666668
10.693167 -21.493849 -1.0098412 17.666666
10.524288 -21.46553 -0.99313325 26
10.637877 -21.529484 -1.0028841 24
10.553585 -21.608675 -1.0240006 19
10.334633 -21.450958 -1.0181394 13
10.586022 -21.567909 -1.0156206 18
10.433508 -21.532021 -1.0048319 26
10.619457 -21.676952 -0.94231427 5
10.275646 -21.526924 -0.926247 9
10.426363 -21.673265 -0.9299897 31
10.705744 -21.573544 -1.1118987 15.166667
10.391188 -21.37319 -1.1021223 14.6
10.648844 -21.644754 -1.0911062 13.5
10.449764 -21.668995 -0.90811157 16.875
10.558235 -21.640074 -1.0483726 12
10.333035 -21.598143 -1.0344428 24.666666
10.614873 -21.626944 -0.71501458 27
10.290259 -21.470411 -0.69903314 17
10.448072 -21.667521 -0.70250976 29.5
10.324823 -21.563837 -0.69800508 21
10.53603 -21.531939 -1.0424423 17.6
10.673992 -21.543211 -0.71794915 23
10.49939 -21.549999 -0.70686722 24.666666
10.73209 -21.495817 -1.0769784 24.666666
10.578707 -21.506655 -1.0594838 18
10.776133 -21.454798 -0.75336742 10
10.54985 -21.45833 -0.72924542 24.5
10.48947 -21.649477 -1.0013618 16.75
10.350694 -21.616438 -0.98951167 29
10.535097 -21.584074 -0.68527144 17.25
10.357968 -21.477461 -0.67210239 7
10.481884 -21.705595 -1.0545589 27.200001
10.21543 -21.512947 -1.0404254 17
10.446634 -21.706205 -0.7349788 19.799999
10.489176 -21.579571 -0.85969388 25.333334
10.625595 -21.49161 -1.0304382 25.799999
10.695629 -21.452526 -0.73280072 23.333334
10.486205 -21.630665 -0.87520462 27.5
10.408468 -21.71689 -0.83048874 1.333333
10.260677 -21.666136 -0.81772619 6.333333
10.60894 -21.630224 -0.92013544 25
10.451418 -21.564713 -0.90512913 17.666666
10.718515 -21.651821 -1.12901 18
10.479135 -21.441402 -0.9679063 9
10.645493 -21.613903 -0.91429186 10.5
10.27689 -21.349915 -1.0266851 16
10.428371 -21.641228 -0.88987637 30.75
10.330637 -21.602364 -0.88096452 31.5
10.515783 -21.66634 -0.90046799 5
10.427366 -21.81189 -0.88442433 2
10.318127 -21.753067 -0.87402773 3.25
10.564114 -21.667496 -0.84606332 17.25
10.25927 -21.726379 -0.94657964 20.583334
10.548994 -21.564774 -1.1184947 27
10.679415 -21.607754 -0.86621028 4
10.666149 -21.542879 -0.86733133 7.1999998
10.433026 -21.539127 -0.84215719 25
10.488086 -21.533737 -0.79877341 1
10.38255 -21.481964 -0.78652084 6.666667
10.621194 -21.734198 -1.0246217 15.375
10.297887 -21.567543 -1.0046875 18
10.504891 -21.703857 -0.76311201 23.5
10.304066 -21.627022 -0.74828655 30.75
10.631775 -21.765644 -1.0048702 17.0625
10.41916 -21.6597 -0.99015015 22.6
10.629675 -21.692055 -1.1677907 7
10.492117 -21.618027 -1.1493878 28.25
10.354565 -21.421316 -1.1375614 20
10.738832 -21.551815 -0.94692928 4
10.514349 -21.626348 -0.90838736 24.571428
10.616029 -21.613853 -0.83494723 12.5
10.441401 -21.645691 -0.81074941 20.5
10.561149 -21.646467 -0.96468157 1.75
10.442647 -21.603828 -0.95086879 6
10.346981 -21.548187 -0.94086725 18
10.600113 -21.592293 -0.73828053 31.25
10.468969 -21.620365 -0.71964842 26
10.418526 -21.706739 -0.9318704 25.857143
10.252214 -21.650032 -0.91215652 15
10.746021 -21.441429 -0.91133767 16
10.603725 -21.768951 -0.98111147 14.833333
10.357817 -21.580811 -0.8396666 31.666666
10.714531 -21.572939 -0.90233374 22
10.490587 -21.536243 -0.96412706 16.541666
10.775553 -21.478361 -0.69466817 19.799999
10.749971 -21.416107 -0.84275579 1
10.351515 -21.48605 -0.77155101 0
10.518812 -21.694477 -0.89781368 15.883333
10.327437 -21.674538 -0.8638922 22.625
10.63487 -21.641661 -0.97648573 19.799999
10.500374 -21.587345 -0.95630467 27.216667
10.344814 -21.58148 -0.82258195 32
10.597982 -21.551216 -1.0505279 8.375
10.821697 -21.409269 -0.90030169 22
10.601197 -21.583469 -0.83931273 30.75
10.535542 -21.601994 -0.8564114 26.142857
10.384467 -21.644339 -0.92504984 18.5625
10.594151 -21.564785 -0.66468722 30.5
10.444565 -21.571478 -0.63519913 27.5
10.493814 -21.64151 -0.94469136 23.375
10.319073 -21.604151 -0.91514319 26
10.57091 -21.638138 -0.75636572 27.833334
10.372348 -21.638397 -0.71925741 29.75
10.708279 -21.514009 -1.0247717 21
10.469698 -21.69598 -1.0550164 12.9
10.322564 -21.589705 -1.0296872 15.416667
10.718413 -21.511238 -0.82319564 23
10.58523 -21.624325 -0.78535432 30.200001
10.407763 -21.587681 -0.74571878 25.666666
10.618239 -21.605328 -0.89670134 27.940475
10.397837 -21.489656 -0.94774485 17
10.621064 -21.546543 -1.0906273 5
10.463995 -21.240675 -1.0784509 7.666667
10.714371 -21.550989 -0.82026219 28.412697
10.606871 -21.624714 -0.96104628 26.625
10.438713 -21.627037 -0.93068951 30.825001
10.624894 -21.587997 -0.68244082 31
10.509612 -21.601704 -0.66049939 27
10.671464 -21.594418 -1.0436966 25.5
10.560964 -21.773289 -1.0948673 20.583334
10.332649 -21.582321 -1.0726272 23.75
10.663962 -21.63084 -0.8509813 28
10.707322 -21.548775 -0.86704832 25.5
10.503008 -21.646311 -0.81731296 31.166666
10.562634 -21.615776 -1.0273454 35.5
10.452456 -21.572586 -1.0127398 27.25
10.628113 -21.657528 -0.84990042 29
10.71866 -21.515434 -0.78907067 27.583332
10.552378 -21.650404 -0.83672816 28
10.461662 -21.573833 -0.73532468 26.666668
10.679448 -21.604284 -1.1179005 25
10.687999 -21.589085 -0.84733438 28.833332
10.449161 -21.540222 -0.90126038 30
10.603387 -21.646507 -0.97693366 24.4375
10.424309 -21.596554 -0.95331353 29
10.337594 -21.469391 -0.95612568 21.25
10.605842 -21.578453 -0.7177245 31.428572
10.457719 -21.595963 -0.69021267 30
10.56497 -21.573986 -0.96797472 26.267677
10.375189 -21.563715 -0.94059378 25
10.708192 -21.579155 -1.0170016 22.25
10.461147 -21.600643 -0.97620672 21.5
10.73503 -21.560797 -0.76001161 27.625
10.794934 -21.468046 -0.86881745 26
10.644514 -21.60664 -0.74014229 23.799999
10.546099 -21.557667 -0.73048449 20.666668
10.867825 -21.465218 -0.80340892 18.299999
10.684541 -21.544355 -0.75470859 25.137501
10.605356 -21.649239 -1.0422533 12
10.458319 -21.470337 -0.95756435 17.583334
10.806017 -21.460938 -0.76564741 28.700001
10.613984 -21.521038 -0.71944946 24.5
10.558085 -21.489239 -0.71259391 26
10.690208 -21.566761 -0.97807854 28.799999
10.47687 -21.55719 -0.95467758 25.166668
10.689464 -21.550274 -0.7271961 31.555555
10.589135 -21.534267 -0.9872207 27.857143
10.808687 -21.475027 -0.77368498 30.799999
10.647114 -21.542118 -0.74350882 32
10.773576 -21.457111 -0.95941007 28.5
10.641857 -21.630091 -1.0104636 16.189394
10.353516 -21.563419 -1.0013478 13.590909
10.798052 -21.422819 -0.80154538 30
10.639639 -21.536148 -0.77894747 30.428572
10.728491 -21.447937 -0.90289468 28.300001
10.616735 -21.550173 -0.80243433 31.800001
10.452923 -21.524235 -0.87421185 27.488886
10.687555 -21.529282 -0.97581184 31.1
10.513065 -21.543705 -0.96778846 22
10.705755 -21.491573 -0.74376404 31
10.552618 -21.545353 -0.73193765 31
10.643748 -21.488258 -1.0126071 25.299999
10.445008 -21.498648 -1.006942 19
10.653806 -21.462612 -0.77962166 26.346153
10.421558 -21.48827 -0.84904999 23
10.655818 -21.407946 -0.88288242 29.79365
10.459352 -21.487724 -0.87603003 24.083334
10.599241 -21.543221 -0.87106067 31.25
10.514336 -21.515606 -0.79608613 25
10.668158 -21.205898 -1.0704316 39
10.293251 -21.396492 -1.0553135 32
10.701533 -21.409739 -1.0500312 32
10.57858 -21.525829 -1.0398817 25.111111
10.725151 -21.384428 -0.89751387 34.333332
10.564501 -21.513798 -0.80993557 27.772728
10.735518 -21.380459 -1.0688291 22
10.668676 -21.589811 -1.0431932 23
10.478653 -21.629593 -1.0340962 18.333334
10.734758 -21.243515 -1.0845135 14.5
10.692883 -21.606783 -0.80967247 29.5875
10.503522 -21.653574 -0.79887819 24.6
10.311487 -21.397465 -0.94443721 16
10.663917 -21.531727 -0.76767367 28.05303
10.47413 -21.560423 -0.76798815 21.833334
10.677726 -21.632832 -1.0821003 27.333334
10.31715 -21.689739 -1.0778793 10.555555
10.699501 -21.576408 -0.91480643 27.285715
10.255248 -21.659172 -0.99324948 16.666666
10.661661 -21.697126 -0.9050644 29.6
10.788577 -21.519327 -0.80579019 30.375
10.537021 -21.633736 -0.80624604 24.392857
10.689932 -21.659428 -0.85263908 28.772223
10.460408 -21.642048 -0.94296145 20
10.753624 -21.588015 -0.96003395 30.333334
10.478573 -21.684898 -0.94955713 19.5
10.791899 -21.541939 -0.79110903 30
10.699097 -21.673824 -0.78032309 31.833334
10.517999 -21.70616 -0.77524024 24.333334
10.704554 -21.425076 -0.94437444 29
10.413446 -21.48888 -0.93627286 18
10.576013 -21.703629 -1.0008826 17.541666
10.738331 -21.372978 -0.77550077 32
10.426916 -21.494799 -0.76143587 22
10.683734 -21.468048 -0.76746976 32.200001
10.556106 -21.532459 -0.76057875 30.25
10.748827 -21.503176 -0.83333617 31.333332
10.458268 -21.616501 -0.81734854 21.666668
10.63464 -21.639627 -0.81928545 28.5375
10.49383 -21.640966 -0.72816163 24
10.586777 -21.736588 -1.0837415 24
10.545534 -21.687969 -0.91365635 22.6
10.672264 -21.725639 -0.82229793 30.049999
10.712619 -21.528316 -0.86857867 29.700001
10.508524 -21.600368 -0.87019217 21.366667
10.664337 -21.611727 -0.77899408 32
10.606662 -21.631527 -0.77946329 31.333334
10.695054 -21.382675 -0.95883834 27.875
10.540736 -21.523846 -0.9543885 25.174603
10.668384 -21.449459 -0.69435823 20
10.578032 -21.473228 -0.69532359 19.6
10.626415 -21.545372 -0.90148091 31.099998
10.317926 -21.596474 -0.99233794 17.625
10.713446 -21.369057 -0.95247829 26
10.581539 -21.5741 -0.94393325 26.256945
10.451586 -21.523397 -0.77704477 25.1875
10.761052 -21.548435 -0.85179919 29.75
10.592025 -21.672672 -0.853414 25.9375
10.753996 -21.45705 -0.95876974 25.25
10.579266 -21.632549 -0.95805007 26.683334
10.72893 -21.476334 -0.69553059 15
10.607779 -21.610693 -0.69619912 30.625
10.766125 -21.545084 -0.88469923 30.25
10.565985 -21.672218 -0.88601339 24.285713
10.660086 -21.676094 -0.79464924 33
10.747942 -21.559021 -0.91195941 30.475
10.502812 -21.619825 -0.92292404 21.283333
10.708645 -21.640245 -0.8227191 33
10.636751 -21.69846 -0.82410336 29.333334
10.63039 -21.423592 -0.65829682 8
10.523594 -21.518135 -0.66068554 8.5
10.730917 -21.533306 -0.87184978 30
10.49292 -21.61837 -0.88565159 21.375
10.679163 -21.626522 -0.78436399 31.25
10.583729 -21.671181 -0.7893908 29
10.753249 -21.560612 -0.95883882 30.6
10.530684 -21.658131 -0.97189271 19.666666
10.789378 -21.518429 -0.7821461 30
10.472588 -21.629059 -0.80126846 20.666666
10.708308 -21.627213 -0.78516686 31.285715
10.821612 -21.522446 -0.9778285 21.325001
10.489126 -21.621668 -0.91135716 19.75
10.75728 -21.499718 -0.72067142 28.5
10.480791 -21.622202 -0.73630643 21.5
10.674429 -21.604755 -0.72373366 31.5
10.545601 -21.649435 -0.73126149 30
10.676121 -21.587521 -0.91353673 26.848213
10.288544 -21.577255 -0.94703096 17.916666
10.653658 -21.678301 -0.8247804 31.25
10.515316 -21.526989 -0.6634025 9
10.217291 -21.421511 -1.0558871 10.166667
10.714389 -21.590523 -0.91475832 27.178572
10.353542 -21.608362 -0.94573987 18.450001
10.674576 -21.693123 -0.82704437 29.200001
10.611141 -21.555828 -0.6599592 12.333333
10.695307 -21.57596 -0.93443853 29.583332
10.373728 -21.614113 -0.96148211 19.15
10.664211 -21.679216 -0.84584481 30.25
10.610874 -21.597261 -0.67741376 29.333334
10.72703 -21.560356 -0.66867644 27.5
10.23177 -21.436434 -1.0511601 10.333333
10.6844 -21.575687 -0.91277558 26.86508
10.330292 -21.590652 -0.94564778 18.142857
10.672132 -21.680138 -0.82298046 32.25
10.60726 -21.543217 -0.65577656 14.142858
10.823951 -21.430984 -0.86405653 31
10.653121 -21.582497 -0.96656603 30.6875
10.35055 -21.746365 -1.0799623 11.666667
10.663136 -21.688574 -0.87451142 29.75
10.579166 -21.618195 -0.70888585 30
10.718458 -21.571569 -0.69644874 28.666666
10.75107 -21.561745 -0.98208922 29.049999
10.534252 -21.692425 -0.99828285 17.333332
10.684581 -21.702335 -0.89591211 30.25
10.687654 -21.601646 -0.72291154 29.5
10.507013 -21.645672 -0.73816007 22
10.697977 -21.622808 -0.72184128 30.833334
10.775039 -21.525303 -0.98483562 24.810606
10.532261 -21.659521 -0.91535568 18.75
10.688501 -21.704046 -0.98648238 23
