# .PCD v0.7 - Point Cloud Data file format
VERSION 0.7
FIELDS x y z intensity
SIZE 4 4 4 4
TYPE F F F F
COUNT 1 1 1 1
WIDTH 557
HEIGHT 1
VIEWPOINT 0 0 0 1 0 0 0
POINTS 557
DATA ascii
4.8533592 -4.9486427 -0.30629992 11
4.8668327 -4.915554 0.68302941 6
4.8134727 -5.0143051 0.41927344 4
4.7757416 -4.9751701 -0.3921324 2
4.8237858 -4.9897575 -0.01222217 10
4.8494549 -4.9509239 -0.055245761 11
4.8510532 -4.929966 0.92197764 3
4.800993 -4.9319458 -0.44648993 5
4.8494873 -4.9635696 0.10211152 4
4.7894688 -5.0375595 -0.10731733 2
4.8301964 -4.9761314 0.2357744 6
4.8208199 -4.9130402 -0.41095197 6
4.7422352 -4.9698563 0.067954898 3
4.749321 -4.8978462 0.17892981 3
4.7772808 -4.9091034 -0.03213549 3
4.8257599 -4.9830399 -0.41342318 9
4.8118324 -4.9418373 0.56921089 4
4.7678394 -5.0085716 -0.4019416 2
4.7455444 -4.9012604 -0.18505931 2
4.8283615 -4.9174194 0.63006461 4
4.8600636 -4.9305725 -0.44160289 5
4.8246937 -4.9775009 -0.4251197 5
4.7551136 -4.9225883 0.084251523 4
4.7592545 -4.899292 0.81754357 2
4.7616711 -4.9415855 0.14250112 6
4.7993393 -4.9037209 0.71652448 6
4.7908707 -4.9088898 -0.047478441 8
4.8003063 -4.9362755 -0.19053197 6
4.7577152 -4.9141006 -0.015977031 3
4.8639584 -4.9275208 -0.23095608 7
4.78232 -4.9185333 0.16194928 5
4.7539368 -4.8989716 0.05209351 4
4.7981529 -4.9242783 1.0336494 2
4.749649 -4.9052734 -0.2323882 3
4.8043022 -4.9278793 -0.39770997 4
4.7748585 -4.9506912 -0.15517652 3
4.8369751 -4.9275398 0.82287848 2
4.7910252 -4.9319534 -0.48848474 8
4.8164864 -4.9187279 0.49829185 8
4.8273544 -4.9180336 0.26727808 10
4.8078861 -4.9307671 -0.5575242 4
4.7727451 -4.9094887 0.41410995 3
4.7641926 -4.9158783 -0.14503086 4
4.7899609 -4.9133415 -0.55642915 3
4.7644424 -4.8978081 0.4210093 4
4.7481022 -4.9142838 0.1154809 3
4.7841625 -4.9134064 -0.27740169 8
4.8295326 -4.9734192 0.031090381 9
4.803606 -4.9535942 -0.18422055 2
4.8480988 -5.0515137 -0.15562356 4
4.8659744 -5.0057068 0.19569027 5
4.839777 -4.9674606 1.1676607 1
4.7625484 -4.9145889 1.3159873 1
4.8577538 -4.978672 -0.31758142 6
4.8415508 -4.9252014 -0.38203919 11
4.8106289 -4.9047966 -0.24722469 10
4.7757435 -4.914444 0.73375618 2
4.8239059 -4.9274368 0.13210464 5
4.8659039 -5.000576 0.05240107 6
4.8637924 -4.9923897 -0.038312081 10
4.8207359 -4.99049 -0.22724414 3
4.8503857 -5.01511 0.40384889 2
4.8327227 -5.0098763 -0.74535769 6
4.7944384 -4.968586 -0.5370149 3
4.8250966 -4.9341393 -0.46149385 7
4.8213506 -4.9106064 0.34100688 4
4.8154821 -4.9181671 -0.17931032 7
4.8286061 -5.0225487 0.92135417 15
4.8212881 -4.9233284 -0.019418869 10
4.8444386 -4.934803 0.35520029 21
4.7874308 -4.9378586 0.98142195 4
4.7957802 -4.9076996 -0.9458738 6
4.7940388 -4.9159908 -0.54399252 100
4.8055377 -4.9137173 -0.18242855 59
4.8194046 -4.9119244 -0.30358782 37
4.8333073 -4.9115562 0.21437438 4
4.8121109 -5.0342026 0.39606655 1
4.8051033 -4.9038696 0.19247356 11
4.8492928 -5.007021 0.38810962 14
4.8201313 -5.0394211 -0.6075443 15
4.8507414 -5.0149212 -0.211707 15
4.8026533 -4.9806538 -0.54770321 13
4.8063269 -4.9112701 -0.62407494 3
4.7565374 -4.9231873 0.13507819 0
4.7968025 -4.9512463 0.27115041 2
4.8435211 -4.9836254 -1.0978823 6
4.7875118 -4.9404984 -0.74561882 2
4.7666101 -5.0221272 -0.80021745 3
4.8192282 -4.9670067 -0.12618904 13
4.7448339 -4.9323597 -0.7425217 2
4.8092632 -5.0329332 -1.0660552 9
4.7828436 -4.9174204 -0.77426779 2
4.7600822 -4.9961319 -1.1125371 10
4.7532167 -4.9222078 -0.82122302 2
4.7758188 -4.9019279 -0.52828884 14
4.7953238 -5.0399065 -0.51340032 11
4.7674274 -4.9167004 -0.95439601 3
4.7883878 -5.0285606 -0.98879594 3
4.757947 -5.016078 -0.72933525 3
4.7786965 -4.9975681 -0.47073695 5
4.7676511 -5.0370827 -0.47898602 2
4.7530055 -4.9905186 -0.94685042 3
4.7610998 -4.989255 -0.5484122 1
4.7562857 -4.9720135 -0.34876761 0
4.7422543 -4.9952984 -0.94570333 3
4.7493038 -4.9854803 -0.75192386 4
4.7582507 -4.9786043 -0.55957395 2
4.7980566 -4.9548969 -0.36750752 10
4.7605839 -5.0380602 -0.84262919 2
4.762351 -5.0200062 -0.66494346 4
4.745646 -5.0288591 -0.48591641 1
4.7455726 -4.9653568 -0.89493281 2
4.7770987 -5.0386729 -1.0336032 2.5
4.7749696 -5.0361147 -0.82622153 2
4.7977276 -5.0251694 -0.68666548 3
4.7728205 -5.0314188 -0.54868001 0
4.7950029 -5.0221696 -0.41043204 2
4.8445306 -5.0065269 -0.20229287 6
4.8107567 -5.0040045 0.0060850801 1
4.8097277 -5.0009699 0.14642565 1
4.7411909 -5.0356627 -1.0351967 3
4.7546568 -5.0301685 -0.83107668 2.5
4.7624297 -5.0202117 -0.62908798 2
4.7691236 -5.0146837 -0.49449727 2
4.7439752 -5.0077949 -0.35798177 1
4.7611332 -4.9986315 -0.086878262 1
4.7514634 -5.0150757 -1.1318903 3
4.753788 -4.9895806 -0.75483865 3
4.741138 -4.9884391 -0.62905926 1
4.8254247 -4.9434514 -0.19637197 9.5
4.8577328 -4.9294081 0.11564451 15
4.7634373 -4.9426479 0.38292271 0
4.7490363 -5.0143261 -1.0665697 2
4.7462163 -5.0109138 -0.83463985 2
4.7599382 -5.0036721 -0.66217142 1.5
4.7523241 -4.9968133 -0.43182003 1
4.7675018 -4.991004 -0.25967312 1
4.7877007 -4.9547052 0.43186456 1
4.7883773 -4.9697433 0.54974788 0
4.7883854 -4.9549365 0.66777766 0
4.7696362 -4.9055796 -0.66572088 4
4.745265 -5.0128183 -0.79043722 2
4.7407207 -4.9725704 -0.40720335 1.333333
4.764915 -4.9906163 -0.30975729 1
4.7710109 -4.9600968 -0.17662111 5
4.7981768 -5.0426397 -1.0263219 1.5
4.8335023 -5.0380673 -0.28652057 1
4.8536539 -5.030859 -0.12366968 3.666667
4.7438822 -4.9807453 -0.32051086 1
4.7545357 -4.9754596 -0.18685874 1
4.7570214 -4.9371166 -0.10391924 6
4.8384013 -4.9728737 -0.29413059 1
4.8589783 -4.997941 -0.26979953 2
4.857789 -5.0126104 0.18131274 1
4.8240352 -4.9079504 -0.32547179 1.5
4.8139787 -4.9794798 -0.13882302 2.5
4.8195086 -4.969152 0.035441671 1.4444439
4.8126688 -4.9619312 0.20819083 1.333333
4.7813072 -5.0218239 -0.29614353 5
4.7533112 -4.9091949 -0.29979694 2
4.8662395 -4.9408531 0.30812895 2
4.8506479 -5.0092278 -0.164455 3
4.8244381 -5.0042915 0.01208323 3
4.8444195 -5.0116196 -0.2401312 3
4.8151989 -4.9168091 0.78917575 5
4.8033738 -4.9259663 -1.1320469 2
4.850132 -4.9674225 -0.72153777 4
4.7505169 -4.910099 -0.91955161 3
4.7697363 -4.9049454 -0.78710455 3
4.7568483 -4.9011097 0.18147674 0
4.8101892 -4.9492445 -1.0289476 3
4.7948971 -4.9382744 -0.7234261 5
4.8260021 -4.9148989 -0.11220112 7
4.7740364 -4.9079456 -0.91578197 3
4.7576122 -4.9395361 -1.025645 3
4.7661505 -4.9237709 -0.93053228 3
4.7757893 -4.9061975 -0.65702599 3
4.8573985 -5.0003948 1.7724847 3
4.8327127 -5.0297537 -1.0753546 5
4.7477927 -4.9201784 -1.0060008 3
4.7650018 -4.9069891 -0.74789679 5
4.8630362 -4.9831419 1.2894369 1
4.7808008 -4.9079981 -1.0121355 4
4.7572727 -4.9029684 -0.76376694 2
4.8492718 -5.025362 1.713834 0
4.8177619 -4.9460182 -0.83681881 2
4.831696 -4.9234009 -0.59407938 11
4.8062711 -4.9157629 -0.91799277 3
4.7882977 -4.9107447 -0.69239897 8
4.8617935 -4.9348974 1.5720339 1
4.8552551 -5.012126 1.6411994 0
4.8677592 -4.9849701 -0.85468084 3
4.829145 -4.9767618 -0.64355487 3
4.8069873 -4.9696846 -0.2137775 0
4.798027 -4.9362049 -1.1551937 3
4.7470136 -4.9286995 -1.2106091 13
4.7935996 -4.9377813 -0.99495095 3
4.8175797 -4.919076 -0.78393871 4
4.7793913 -4.9441977 -0.89396858 2
4.7684102 -4.9359379 -0.69643408 2
4.8697329 -5.0020504 -1.2219152 25
4.8579402 -4.999691 1.6044402 0
4.7929549 -4.9055462 -0.76637882 4
4.7615137 -4.9183145 -0.95768321 2
4.7539463 -4.9041567 -0.58885372 1
4.8618646 -5.0126033 1.2362034 0
4.7740197 -4.9031167 -0.72612178 3.5
4.8179016 -5.0134354 1.3910397 0
4.8228369 -4.9994125 1.7265408 0
4.7452884 -4.9067922 -0.82084227 2
4.7482243 -4.9002252 -0.6627326 1
4.7585859 -4.9014759 -0.50394285 1
4.8087311 -5.0119295 -0.94849837 2
4.8006158 -5.0043225 -0.79586685 2
4.7929435 -4.9961047 -0.56661737 2
4.8351789 -4.9583225 0.73896307 1
4.8403258 -4.9642816 0.585769 1
4.8346491 -4.9572625 0.89234686 1
4.827754 -4.9496579 1.0477794 1
4.766253 -4.9185324 -0.97843271 2
4.8630648 -4.975647 1.2230154 1
4.8307042 -4.9525418 1.2270746 0.5
4.8417511 -4.9375682 1.5981141 1
4.8165002 -4.9641242 1.3354408 1
4.8121991 -4.9682093 1.3030881 0.5
4.7740283 -4.9473782 -0.98157138 3
4.7574081 -4.9148517 -0.64083487 2
4.8080106 -4.9173279 -0.74848855 2
4.745852 -4.9164982 -0.52771121 1
4.7714896 -4.9115582 -0.35521695 1.5
4.7685843 -4.9044867 -0.12876299 1
4.8597436 -4.9904747 1.2928514 1
4.8109264 -5.0232921 -0.89874357 2
4.8173923 -5.0172496 -0.70799762 1.5
4.8225822 -5.0109301 -0.51876473 1
4.8352218 -5.0090494 -0.33072644 1
4.8466759 -4.9735889 -0.0020804999 4
4.8585234 -4.9698029 0.70959413 0.5
4.7487674 -4.9020481 -1.0885221 2
4.7579551 -4.9006052 -0.92289931 2.5
4.745676 -4.8979316 -0.72127497 2.333333
4.7788925 -4.9323516 -1.0084285 1.666667
4.7987876 -4.9304461 -0.80960077 1.5
4.791297 -4.9267707 -0.61913353 0.66666698
4.7998838 -4.9149542 -0.3129296 1
4.8065214 -4.9704866 -0.85664266 1.5
4.8213105 -4.9689445 -0.70812702 1.333333
4.7996407 -4.9576683 -0.5145272 2
4.8211346 -4.9511294 -0.29967624 3.666667
4.8326826 -4.9347949 -0.071178637 1.5
4.8249822 -4.9424667 0.0093753096 0
4.8278618 -4.9198918 0.39654797 5
4.8267775 -4.9229746 0.34086019 4
4.8286257 -4.91043 0.71356028 0.75
4.745575 -4.9035745 0.96602792 0.32499999
4.7560463 -4.922215 1.3706919 0.68888903
4.7951431 -4.9549942 1.691282 0
4.7391472 -4.9955654 0.58333206 2
4.756897 -5.0108604 0.78129601 5
4.856884 -4.9295273 -0.21304375 3
4.7637711 -4.9392471 -0.55809814 6
4.7808456 -4.9332809 -0.051884528 6
4.869072 -4.9456291 -0.24793112 8
4.8546715 -5.0495872 -0.076375373 4
4.8427811 -5.0524292 -0.46125364 3
4.7834015 -4.9525719 -0.43966264 3
4.8369598 -4.9917488 0.41039646 4
4.7712936 -5.0171127 -1.1382883 5
4.8602982 -5.0044365 0.31354433 5
4.8357849 -4.9738159 -1.0318172 2
4.8225327 -4.93927 -0.49437952 7
4.8533783 -4.9170418 0.54615355 6
4.8036461 -4.9230957 -0.53897041 3
4.8049908 -5.0374184 -1.0754956 2
4.865839 -4.987011 -0.093161941 9
4.8617725 -4.9460716 -1.0735921 2
4.8450356 -4.9561577 -0.051796559 4
4.8432388 -5.0090179 0.10873288 5
4.7685413 -5.0351791 -0.98681581 1
4.8218193 -5.0183105 -1.0276755 1
4.7497215 -4.9825592 -1.0082575 1
4.8607502 -4.9140625 -0.043795232 11
4.8687267 -4.9631996 -0.65070915 5
4.8199215 -4.9822922 -0.74417365 3
4.8597565 -5.037323 -1.0114185 1
4.8690834 -4.9800377 -0.53894925 1.5
4.7518559 -4.9255829 -0.81095314 1
4.7652626 -4.9720802 -1.0504177 2
4.792593 -4.9546089 -0.50573087 4
4.8389683 -4.961956 0.5558688 5
4.8081112 -4.9630394 -0.83791792 2
4.8541946 -4.9339333 0.13850868 11
4.802187 -4.9729462 -0.973939 2
4.8693485 -4.9167404 0.00165528 12
4.7667046 -4.9495201 -0.8552804 3
4.8145771 -4.9240417 0.12103796 8
4.7869606 -4.9091263 -0.086648107 8
4.8532562 -4.9139175 -0.39109504 11
4.7516079 -4.9467735 -1.1158032 2
4.838274 -4.9150848 -0.73190582 4
4.7809162 -4.9369087 -0.89485693 1
4.8300915 -4.9078712 0.30931365 4
4.8251095 -4.9552803 -0.74421072 3
4.7993698 -4.9329987 0.068130612 4
4.8679466 -4.9394531 -0.65860939 3
4.7798328 -4.9170494 0.34994656 3
4.8285122 -4.934269 -0.57837772 4
4.8578758 -4.918869 0.40753829 9
4.8076992 -4.9071541 -0.56865495 8
4.7750225 -4.9476395 -0.9956423 2
4.8368759 -4.9176369 -0.54531765 3
4.7644043 -4.9198761 -0.51616275 2
4.7834797 -4.9414253 -1.2074689 2
4.7940483 -4.9413795 -0.22379267 8
4.7621689 -4.9503632 -0.66408086 4
4.8240547 -4.9838905 0.42352998 2
4.8000946 -4.9063797 0.32611477 3
4.8616772 -4.9215584 -0.50316203 3.5
4.8011303 -4.938118 0.8481493 3
4.8128738 -4.9354973 0.061007019 6
4.8151131 -4.9896545 -1.2515855 1
4.8030624 -4.9263992 -0.80684948 2
4.7454548 -4.9382515 -0.86156225 1
4.7779903 -4.9130592 -0.76542425 2
4.8144646 -4.9415283 -0.83501828 1
4.7825909 -4.9054451 1.2969738 1
4.7873955 -4.9254913 -0.76338971 1
4.7578239 -4.9206924 -0.59316254 2
4.7772655 -4.9149971 -0.73458934 2
4.846983 -4.9645119 -0.37478924 1
4.7849922 -4.9892883 -0.94204879 2
4.8657303 -4.9205132 0.02744174 10
4.8320732 -5.0434761 -0.96149337 1
4.8458328 -5.0200043 0.81887805 1
4.8571224 -4.9986839 1.6074321 1
4.8434601 -4.9264374 0.24138677 10
4.7741051 -4.9413757 -0.49640274 1
4.8275928 -4.9102631 0.58901489 8
4.7638855 -4.9383011 -1.0081016 2
4.7662945 -4.9478264 0.047335621 4
4.8442516 -4.9320755 -0.47184706 10
4.7901058 -4.9213104 -1.1088361 2
4.8159084 -4.9848289 -1.2556399 3
4.8020687 -4.9407654 -0.70294595 4
4.7509546 -4.9072113 -0.72096956 1.5
4.8142486 -5.0382767 -1.2541469 2
4.7431822 -4.9155998 0.06472832 1
4.8367577 -4.9676285 0.79281157 6.5
4.8277345 -5.0312004 0.17923722 18
4.8406868 -4.9661179 -0.86742151 2.5
4.8607798 -4.9230309 -0.15553081 12
4.8071632 -4.9257736 -1.1015089 4
4.7514954 -4.905777 -0.40000752 4
4.7932611 -4.9146538 -0.61102402 5
4.8002429 -4.938282 0.23025909 11
4.7779746 -4.9939232 -0.88368559 5
4.8353958 -4.9569283 -0.26634073 28
4.7589531 -4.9500198 -0.65839756 17
4.8259869 -4.9298477 -0.049759239 17.333334
4.7604961 -4.9107285 1.2027069 4
4.7804327 -4.93536 -1.0142736 2
4.8071823 -4.9133873 -0.41328901 29
4.7821059 -4.9006577 0.19869286 17
4.8173161 -4.9661293 -0.62504137 19.333334
4.7860885 -4.9281883 1.1839939 8
4.7998772 -4.9816513 -0.7335096 32.5
4.805563 -4.9396477 0.42912382 33.666668
4.7889805 -4.9655628 0.42545247 46
4.7844868 -4.9674492 0.99280047 7
4.7681403 -4.9440804 1.5617683 8
4.8314233 -4.9285069 -1.0581934 9
4.7502203 -4.9052601 0.66732436 4
4.8385344 -4.9507103 -1.0637238 10.333333
4.7969732 -4.9380245 -1.0288723 8
4.7842989 -4.90205 -0.52148193 123
4.7618523 -4.9564037 -0.17966524 145
4.7976556 -4.924015 0.33850178 130
4.7655497 -4.9006329 -0.295811 129
4.8633909 -4.9512024 -0.0071766502 255
4.7879181 -4.9211998 -0.4438656 213.5
4.7596703 -4.9299145 -0.74706954 10
4.8202324 -4.9077148 -0.25372666 164
4.8703809 -4.9148731 -0.86340374 6
4.780581 -4.9545956 -1.1682771 7
4.7731042 -4.9472542 -1.1149939 12
4.7533488 -4.9028702 1.1843461 4
4.8327055 -4.929388 -0.99953228 3.666667
4.8351355 -4.9895821 -0.94834036 3.5
4.8747988 -4.9262505 -0.99906605 3.5
4.8118925 -4.9467907 -1.0701246 8
4.8721056 -4.9367523 -0.80317128 1
4.8293495 -4.956131 -0.93726629 2
4.8367748 -4.9208755 -0.99953747 3
4.815794 -4.9119987 -1.0044619 3
4.8291512 -4.918045 -0.81488943 1.5
4.8037901 -4.9770489 -0.72734529 2
4.8070688 -4.9126129 -0.65280676 2
4.7600555 -4.9768124 -0.65339142 3
4.8311052 -4.9362869 -0.19465929 15
4.7931738 -5.0429897 -0.93503726 0
4.8293266 -5.0492382 -0.49218714 12
4.7444553 -4.976223 -1.1149639 1
4.8180246 -4.9227982 -0.24747166 13.5
4.7826433 -5.0324249 -0.20511043 13
4.7770662 -5.0101089 0.19862092 9
4.8140125 -4.9982052 0.59639704 7.5
4.8082075 -5.0034161 -0.94293636 4
4.8037977 -4.9757366 -0.14780703 8.5
4.8029222 -4.9662647 0.24953517 8
4.8383579 -4.9393253 0.64740425 15
4.7934647 -5.0236893 -1.0744566 20.666666
4.8468561 -4.9275837 -1.0000234 4.666667
4.8258686 -4.961422 -0.44593638 14
4.7818594 -4.9716568 -0.086069748 1
4.8182888 -4.9436893 0.63204771 2
4.838913 -4.9346581 0.99094588 2
4.8452835 -4.9873161 -1.0976481 7
4.7926989 -4.9980793 -0.4647482 15
4.7604094 -4.9788742 -0.12031631 2
4.8029718 -4.9556351 -1.0850935 5.5
4.8029871 -4.9208527 -0.74891895 2
4.8081083 -4.9039984 -1.1545941 19.25
4.8397279 -4.9824381 -1.1185308 10.5
4.7724495 -5.0390882 -0.23030093 2
4.7446351 -5.0092974 -0.97533339 6.25
4.8382931 -5.0239601 -0.86240834 5
4.8208933 -4.9823923 -0.47471306 12
4.8436594 -4.944149 -0.75096393 5.333333
4.8229876 -5.0103712 -0.26163459 7.333333
4.7913256 -4.9791975 -0.74683177 4
4.8607807 -4.944725 -0.34992775 8.25
4.8114309 -5.0374184 -1.037999 14
4.8223391 -4.9695663 -0.65800864 7
4.7768068 -4.9629192 -0.36630398 5.333333
4.7695971 -5.01472 -0.96721011 5.083333
4.8190384 -5.0125718 -0.68639845 8
4.8017502 -5.0279913 -0.5479762 2
4.7857008 -5.017601 -0.76442748 3.5
4.817924 -4.9997053 -0.49648771 8
4.767827 -5.0132098 -0.49458501 3.5
4.7738819 -5.0000277 -0.29166135 3.5
4.8348513 -4.9783001 -0.091423467 9.333333
4.7865739 -4.992764 -0.088423572 2
4.8056684 -4.9973793 -1.1344404 3.666667
4.8344331 -4.9833226 -0.88386273 2.6111109
4.8215175 -4.9581223 -0.50962788 7.708333
4.8422213 -4.9456925 -0.13472158 7.8035712
4.8564339 -4.9294147 0.2427848 9.3809528
4.8007703 -5.0072832 -0.94989026 2
4.7990208 -4.9920025 -0.72128326 4.333333
4.7780299 -4.9769168 -0.37661505 4
4.7797413 -4.9748263 0.026588781 1.958333
4.7969542 -4.9569731 0.43149179 1.25
4.793643 -4.9437623 0.78688067 1
4.8543248 -4.9379249 -1.1547976 27.777779
4.7549238 -4.9668069 -1.04684 12.841115
4.8165092 -4.9883428 -0.87851357 1.9060839
4.7802572 -4.9666605 -0.49723467 7.6520739
4.8421245 -4.9433813 -0.17156261 11.022858
4.8578811 -4.964056 -0.92825067 1.9446059
4.7702384 -4.9292321 -0.10259339 9
4.752254 -4.9112878 -0.84057647 3.46225
4.7584276 -4.923492 -0.51066732 7.370512
4.8519821 -4.9382586 -0.20015073 2.4795351
4.8598046 -5.0116835 -0.16698046 3.641151
4.8519688 -4.9338894 0.057941619 1.587026
4.8471599 -5.0047407 0.060228288 1.5141031
4.8040838 -4.9028964 -0.22872481 4.9863968
4.756465 -4.9906478 -0.10513075 1
4.8230362 -4.9771299 -0.17407104 2.6300001
4.8070469 -4.9209538 0.10473642 1.777758
4.8514943 -4.9764214 1.2889975 0
4.8574114 -4.968236 1.6514567 0
4.7994652 -4.9239101 0.89201653 2
4.806385 -4.9071808 -0.64171052 3
4.8131905 -4.9270973 -0.56992829 4
4.8364983 -5.0330963 -0.69327003 9
4.7588768 -5.0050735 0.46748322 2
4.8559685 -4.9511299 -0.77718163 3
4.8489456 -4.9358139 0.34933376 7
4.7651062 -4.9307137 0.51235819 2
4.8089657 -4.9336739 -0.29343486 5
4.8515568 -4.9116096 0.61065412 3
4.8092175 -4.9892654 -1.2565958 2
4.7862344 -4.9726982 -0.66115761 3
4.8605833 -4.9292984 -1.268286 10
4.8552051 -4.9281807 -0.70710593 5
4.8573017 -4.9536171 -0.7358219 5.5
4.7465096 -4.9058609 -0.66296971 2
4.8617115 -4.9204674 1.7019784 2.5
4.829565 -4.9383392 -1.1822208 4.5
4.8298903 -4.9355736 -0.59902751 24.5
4.8450184 -4.9102097 -0.81750488 6
4.8386536 -4.9367695 1.4937731 1
4.7847533 -4.9536324 -0.9067598 1
4.851532 -4.9278717 -1.0179619 7
4.8605409 -4.936285 0.48866081 26
4.7832937 -4.9129467 -0.42153803 132
4.8030186 -4.9155006 -0.88679153 5
4.8646278 -4.9156933 -1.0101888 2.666667
4.8395152 -4.9144173 -0.53064013 17
4.8146114 -4.9684544 1.3967892 2
4.8116083 -4.9274521 -0.35933965 10
4.8244972 -4.9312267 -0.92959356 3.5
4.8102674 -4.9207306 -0.46486104 13.5
4.8284712 -4.9579201 -1.1357768 13.5
4.8255186 -5.017271 -1.0727452 8
4.8434296 -4.988472 -0.15298353 3
4.7878542 -4.9290142 -0.72888142 5
4.7549801 -4.9308128 -0.71935469 5
4.7887411 -4.9266949 -0.89495766 4
4.8491755 -4.9228439 -0.5051102 17
4.8334694 -4.9118004 -0.093112923 11
4.8124104 -4.9368973 -0.78160352 1
4.8527975 -4.9247875 -0.38493511 16
4.8174095 -4.9231796 0.0052829199 5
4.8024168 -4.9730816 1.3431715 1
4.8535061 -4.9098454 -1.1146712 5.1999998
4.798769 -4.9120312 -1.1077573 5
4.7878532 -4.9107227 1.2379258 1
4.8696222 -4.9443989 -1.0262599 3
4.8487682 -4.9228249 -0.72155595 10
4.8399305 -4.9235697 -0.4173204 12
4.8165121 -4.9143963 0.19142118 2
4.8076105 -4.9151068 0.49719915 0
4.7911768 -4.9336319 -0.87664223 2.5
4.7719812 -4.9035349 -0.44683099 5
4.8425612 -4.9258575 -1.0055156 5
4.8617849 -4.9369411 -0.83227265 3
4.8568897 -4.923254 -0.47160077 8.75
4.8310761 -4.9168396 0.0065880902 5.833333
4.8353305 -4.9755592 1.3239229 2
4.7698116 -4.9011335 -0.46495852 2
4.8426251 -4.9703293 -0.53329188 4.75
4.8510661 -4.9471779 0.0081172399 5
4.8323679 -4.9633408 -0.10273345 2
4.8286304 -4.9521008 0.32944664 0.5
4.8677769 -4.9252024 -1.1846077 6.4285712
4.8249159 -4.9449892 -0.98415756 3.4000001
4.8378391 -4.911334 -0.94305503 2
4.8594165 -4.9591618 1.2474074 1
4.8097949 -4.9303703 1.2895194 1
4.804491 -4.917614 1.3273081 1.75
4.8219352 -4.912221 1.7471702 2
4.8554211 -4.9774132 1.2896038 1.5
4.8625903 -4.94907 0.59021425 8
4.7925205 -4.9168916 -1.1210415 3.5
4.8357291 -4.9454679 1.3017052 1
4.8128099 -4.9326258 1.3432817 2
4.7519469 -4.9259968 -0.75539017 2
4.8577886 -4.9518127 1.3006427 1
4.8630247 -5.0129857 -0.79745179 2.958333
4.8455496 -4.9930286 -0.42327818 5.125
4.8403454 -4.994298 -0.049806301 1.583333
4.8443408 -4.987545 0.27928489 1
4.8192554 -4.9564495 -1.2376182 25.270832
4.8194051 -4.963017 -0.85271198 1
