# .PCD v0.7 - Point Cloud Data file format
VERSION 0.7
FIELDS x y z intensity
SIZE 4 4 4 4
TYPE F F F F
COUNT 1 1 1 1
WIDTH 675
HEIGHT 1
VIEWPOINT 0 0 0 1 0 0 0
POINTS 675
DATA ascii
4.0797725 -10.681293 -0.71762365 47
4.0960712 -10.636114 -0.95194364 49
4.1051502 -10.626364 -0.14334565 52
4.0548081 -10.624571 -0.16658229 63
4.1033006 -10.646107 -0.94074535 51
4.0788794 -10.630733 -0.13169807 68
4.0801148 -10.661254 -0.77785826 56
4.0599766 -10.685229 -0.34720647 8
4.1061335 -10.643664 -0.1385137 29
4.0969701 -10.629246 -0.21214721 46
4.0701017 -10.646916 -0.91838634 20
4.06499 -10.668187 -0.78008997 36
4.0435839 -10.662467 -0.86273086 2
4.0954247 -10.637243 -0.060564149 58
4.0119433 -10.653104 -0.11504658 10
4.0229664 -10.640265 -0.96501261 0
4.0454969 -10.64444 -0.15691641 1
4.0051403 -10.662907 -0.59374857 255
4.0710726 -10.576387 -0.42483115 83
4.0865526 -10.622538 -1.0209411 56
4.0787525 -10.683546 -1.0961218 46
4.0142155 -10.664062 -0.69779199 5
4.1155968 -10.574337 -1.0671902 52
4.0314684 -10.602858 -0.9883737 14
4.0157356 -10.559757 -0.9283042 48
4.0633879 -10.655151 -1.1157718 43
4.0477057 -10.644526 -1.0434183 57
4.0028915 -10.578514 -1.0759212 56
4.0989904 -10.587572 -0.26697809 77
4.0056658 -10.602934 -1.0889961 14
4.0234613 -10.580925 -1.0621269 52
3.9920092 -10.609922 -0.98894739 26
4.0428448 -10.665972 -0.96004683 52
4.029273 -10.631776 -1.09752 49
4.0494452 -10.57746 -1.0922694 50
3.9996099 -10.630256 -1.0892594 43
4.0275002 -10.577847 -1.0042855 44
4.083663 -10.693334 -0.30738813 62
3.9984074 -10.590922 -1.0252749 26
4.0477686 -10.62088 -1.0521663 61
4.0241232 -10.552821 -0.99790794 40
4.0447311 -10.609642 -1.0718355 37
4.0944901 -10.685429 -0.99658221 86
4.0664473 -10.580642 -0.96643031 60
4.0316682 -10.545187 -1.0433403 33
4.0626721 -10.642977 -0.98856306 88
4.0024815 -10.621954 -0.30618116 22
4.0553293 -10.546101 -0.94953841 57
4.0487571 -10.581758 -1.0086186 76
4.0866256 -10.660463 -1.0730206 89
4.1048551 -10.597428 -0.73250973 109.5
4.0953293 -10.62636 -0.51804733 98
4.0623631 -10.669652 -0.94797164 56.5
4.0843678 -10.625247 -0.7528066 91
4.0805655 -10.621007 -0.61641604 255
4.0660048 -10.66156 -0.47124499 40
4.0432143 -10.57192 -1.1301622 53
4.0887275 -10.697039 -1.0690093 87
4.0569963 -10.551513 -0.94870818 82
4.0342174 -10.546778 -0.58275169 68
4.0629716 -10.630863 -0.81622207 83.5
4.0711823 -10.634081 -0.64552438 61
4.0702634 -10.63378 -0.41875154 10
4.0676489 -10.633794 -0.53199708 49
4.0665803 -10.634415 -0.30585128 0
4.0651875 -10.594671 -0.30012774 67
4.1028528 -10.683263 -0.36549467 70
4.102633 -10.619972 -0.95608091 89
4.0545754 -10.593852 -0.86560982 11
4.0905833 -10.67022 -0.33247587 86
4.069243 -10.649217 -0.91785115 15.5
4.0360556 -10.556978 -1.0442584 16
4.0895414 -10.644417 -0.32370093 56
4.0670133 -10.654358 -0.9959293 22
4.0919995 -10.666829 -1.1601273 15
4.0569758 -10.572971 -1.0813373 7
4.0970459 -10.657818 -0.67939174 121
4.1098762 -10.627923 -0.4462474 83
4.0789485 -10.603451 -0.31140804 60
4.0429201 -10.590476 -1.0097117 10
4.0536294 -10.562324 -0.82257694 17
4.0299058 -10.57559 -0.27422395 78
4.0099974 -10.541018 -0.45977235 33
4.0048895 -10.556354 -0.29023665 16
4.0263996 -10.571856 -0.69170225 22
4.0193987 -10.57947 -0.44031459 20
4.0250893 -10.553318 -0.27501941 27
4.0217061 -10.627407 -1.0536356 7
4.0488272 -10.583815 -0.91758293 15
4.0396872 -10.573977 -0.79396695 19
4.0309172 -10.586833 -0.46303099 14
4.0297022 -10.580384 -0.38128966 18
4.0415821 -10.603116 -1.0718368 9
4.0298119 -10.573509 -0.84884405 48
4.1031141 -10.636976 -0.85689259 6.5
4.1008177 -10.597113 -0.64961332 135
4.0879974 -10.59082 -0.44777003 108
4.0345263 -10.573389 -0.2985512 49.5
4.0372744 -10.612844 -0.91428697 18.666666
4.0710716 -10.593099 -0.69999552 72
4.0459852 -10.592269 -0.50245845 94
4.0231466 -10.55971 -0.9822228 8.25
4.0260911 -10.541063 -0.74755198 21.5
4.0709634 -10.572329 -0.69498378 1
4.0982542 -10.55975 -0.31769443 33
4.0978756 -10.578275 -0.57135141 10
4.0663948 -10.56531 -0.44493547 8
4.0945411 -10.560236 -0.30517319 4
4.0996552 -10.669289 -0.53164142 7
4.0965075 -10.60358 -1.1610261 46
4.0912242 -10.615152 -1.0679723 72
4.0843091 -10.632467 -1.1314015 54
3.9689007 -10.65169 -1.205799 20
4.1078901 -10.621006 -1.0966455 71
3.9910927 -10.608095 -1.1346543 65
3.9960947 -10.651594 -0.54878509 32
4.0320835 -10.543543 -1.0837767 68
4.0149288 -10.589412 -1.0121653 47
4.1035109 -10.572654 -0.35313547 73
4.1071215 -10.570689 -1.1449273 83
4.0563087 -10.605275 -0.99477643 10
4.09831 -10.578642 -0.32430002 71
4.0135632 -10.587852 -1.0366406 6
4.1064286 -10.570173 -0.85785139 72
4.1036472 -10.557767 -0.61569822 139
4.0047545 -10.559582 -0.63150364 45
4.110857 -10.599329 -1.0971564 84
4.0766554 -10.60328 -0.52283448 47
4.029438 -10.564114 -0.9539997 8
4.0540304 -10.555107 -0.5986861 74.5
4.0925884 -10.606547 -1.0697316 54.5
4.0927978 -10.607987 -0.86457813 37
4.1044712 -10.588626 -0.31830218 53
4.1088891 -10.586247 -0.77760053 80
4.1069474 -10.581707 -0.58013815 85
4.0659828 -10.55537 -1.0319887 26
4.0907793 -10.584074 -0.36143363 22
4.0740037 -10.559891 -1.012448 17
4.1022072 -10.557887 -0.62795377 41
4.0929794 -10.558614 -1.015069 16
4.0501194 -10.551805 -1.1408473 43
4.0725303 -10.549169 -1.0056655 61
4.0772305 -10.555221 -0.4256683 61.5
4.0783172 -10.664667 -0.61520559 46.357143
4.0289388 -10.615494 -0.30734169 45
4.0603085 -10.65776 -0.52285582 18
4.0591974 -10.683036 -0.22392371 19.25
4.0888815 -10.638016 -0.096351013 0
4.05372 -10.626933 -0.95093477 45
4.0198364 -10.619141 -0.64724886 43.25
4.0481286 -10.621162 -0.24499977 64.75
4.1132202 -10.630429 -0.3449437 255
4.0950866 -10.574697 -0.96827382 15
4.0502362 -10.653857 -0.67124856 44.916664
4.0384803 -10.650776 -0.26825738 53
4.0532522 -10.633792 -0.23286405 55.25
4.0482559 -10.686955 -0.6783638 40.5
4.0802612 -10.666094 -0.27262878 90.333336
4.1107845 -10.646406 -0.32015383 85.041664
4.0277653 -10.647525 -0.79586232 34.333332
4.0789638 -10.635173 -0.084508523 55
4.1127734 -10.622163 -0.082643308 61
4.0233049 -10.611268 -0.62696576 36.650002
4.0269251 -10.624407 -0.22205256 46.5
4.0807037 -10.653133 -0.75129521 5
4.0656891 -10.687221 -0.65314251 3.5
4.031321 -10.651228 -0.14326395 14
4.0807333 -10.638658 -0.34326071 16
4.0232897 -10.645591 -0.72050738 50.950001
4.0470109 -10.65085 -0.62816918 42.569443
4.0607586 -10.64429 -0.21916059 96.833328
4.0761728 -10.674146 -0.81725335 19.75
4.0707455 -10.662975 -0.40269876 39.625
4.0457802 -10.653371 -0.19712937 40.25
4.0498099 -10.664433 -0.85229212 24.666666
4.0196261 -10.626873 -0.53867739 68.699997
4.0807748 -10.649171 -0.80425918 40.666664
3.9913306 -10.622336 -0.49117669 77.5
4.0920858 -10.660072 -0.81352133 39
4.0900717 -10.622679 -0.4986003 102.375
4.0101252 -10.632527 -0.45529872 5
4.0930882 -10.692645 -0.80324972 0
4.0934601 -10.673437 -0.71763325 0
4.0997181 -10.675005 -0.38998771 101
4.0182056 -10.660102 -0.062199581 60
3.9789236 -10.640664 -0.1996305 3.4000001
4.0747838 -10.640487 -0.11172171 1.5
4.0290136 -10.636766 -0.6578691 1
4.0379333 -10.618719 -0.218142 6
3.9980488 -10.668674 -0.22180364 9.5
4.0068245 -10.639319 -1.0167887 2
4.0052118 -10.662446 -0.72464871 4
3.9777107 -10.638345 -0.42669153 16.5
4.0011387 -10.611375 -0.65307707 2.5
4.0118895 -10.60041 -0.34543806 11.333333
4.0327711 -10.667316 -0.14388087 5.5
4.0710878 -10.677564 -0.12463033 0
4.066884 -10.626148 -0.64589441 21.333334
4.0399313 -10.663855 -0.10360566 75
4.0060139 -10.652716 -0.37618396 2
4.0238533 -10.574267 -0.41321093 37
3.9819832 -10.610405 -0.89348042 15
4.1216393 -10.558985 -0.23208821 11
4.0332947 -10.643366 -0.84408408 39
4.070858 -10.551245 -0.55225819 5
3.9999657 -10.566048 -1.1033167 30
4.0146103 -10.573078 -0.34076709 19
3.9865875 -10.594799 -0.56357574 255
4.0344467 -10.548641 -1.1792005 11
3.9955444 -10.598301 -0.98962045 40
3.9674759 -10.642845 -0.63721907 136
3.9695549 -10.649742 -0.94493669 23
4.0086555 -10.612854 -1.1642946 16
4.0006599 -10.604923 -1.0718148 22
4.047348 -10.56292 -0.35430062 18
3.97892 -10.623585 -0.69546974 255
4.0205727 -10.550385 -0.8940888 16
4.0939751 -10.649551 -0.56998229 59
3.9691048 -10.642689 -0.73714095 255
4.0090752 -10.544781 -0.48921216 30
3.9874382 -10.644306 -0.74964154 178
4.0053444 -10.60453 -0.94451982 28
3.9901314 -10.611153 -0.82641506 18
3.9936638 -10.59642 -1.0658026 22
4.0466347 -10.592785 -0.27845424 27
3.9900589 -10.6339 -0.3702215 21
3.9867935 -10.629879 -0.69579625 255
4.0145245 -10.670628 -0.46645331 77
4.0102139 -10.649242 -0.71444076 85
3.9984608 -10.630505 -0.6639055 255
3.9615459 -10.658836 -0.51455283 255
4.090847 -10.574532 -0.51086152 70
4.0644188 -10.646889 -0.31819081 61
3.9952564 -10.661297 -1.2383584 6
4.0107193 -10.637012 -0.50510859 51
4.0598793 -10.686359 -1.0884033 25
4.0707588 -10.612617 -1.2053325 17.5
4.0381088 -10.547234 -0.68708205 255
4.0636997 -10.682026 -0.59086442 255
4.0067368 -10.654732 -0.64171863 255
4.0196323 -10.562382 -0.75086188 255
4.0372143 -10.613991 -0.62036502 255
3.9917221 -10.604603 -0.86203551 39
3.9875641 -10.590954 -1.1001452 74
4.016798 -10.643715 -0.70769954 255
4.0085621 -10.586136 -1.0709915 19
4.0621433 -10.598755 -1.1985735 2
3.9827747 -10.621307 -0.79764247 80
3.9960175 -10.619972 -1.0690662 66
4.0216999 -10.675919 -1.0450814 40
4.0001583 -10.651878 -0.84644639 38
4.0056057 -10.670116 -0.33359015 34
4.0523968 -10.665352 -1.0063195 19
3.9775715 -10.638241 -0.80134809 40
3.9855404 -10.66053 -0.96546209 40
4.0156116 -10.666756 -0.91077614 39
3.9731846 -10.647346 -0.47350878 53
4.0079174 -10.62841 -0.96793258 39
3.9818916 -10.622486 -0.6786629 255
4.0782108 -10.682884 -0.68107355 255
4.0050182 -10.627399 -1.0688283 39
4.0420208 -10.681007 -1.1705136 10
3.9707947 -10.628365 -0.88801432 54
3.9665756 -10.658653 -1.0912467 53
4.0022964 -10.668579 -0.50212973 255
3.9829636 -10.650909 -0.75955915 255
3.9894123 -10.625408 -0.39815903 73
4.0021553 -10.651749 -1.083378 59
3.9830685 -10.662243 -0.58800817 240
4.0392227 -10.67852 -0.7889111 120.5
3.9917107 -10.610695 -1.012428 59
4.0028477 -10.650703 -0.48866427 44
4.0157051 -10.629654 -0.5181365 41
3.9991875 -10.668835 -0.75457001 255
3.9929485 -10.65308 -0.42457438 41
3.9749413 -10.639061 -1.0370088 50
4.0222454 -10.63242 -0.37119663 34
3.9942265 -10.611633 -0.6624459 255
3.9996452 -10.632313 -1.0835651 69
4.0020027 -10.649395 -0.52418816 255
4.0061588 -10.611767 -0.77166617 255
3.9903049 -10.599331 -0.42207348 78
3.9972115 -10.653614 -1.1925703 17
3.9932556 -10.631485 -0.6865083 255
3.9882774 -10.650219 -0.7195996 255
4.0445919 -10.671619 -0.58802527 255
4.0362949 -10.575855 -1.0367892 3
3.9879475 -10.592945 -0.79294825 68
3.9883728 -10.637882 -1.1682647 64
4.0155602 -10.619118 -1.2083888 16.5
4.0028038 -10.642445 -0.60724688 255
3.9837265 -10.666477 -0.69150317 255
3.9934559 -10.641823 -0.82274997 255
3.9923973 -10.622391 -0.72469223 255
4.0170116 -10.641991 -0.61855745 255
4.0010185 -10.636059 -0.62216246 255
4.0108147 -10.628658 -1.0863161 53
4.0410557 -10.665436 -1.1672479 15
4.0041122 -10.647488 -0.67010415 255
3.9866829 -10.62574 -1.00407 76
4.0031166 -10.626347 -1.1339103 56
3.9856281 -10.630859 -0.62906528 255
3.9811649 -10.626896 -0.52963543 255
3.9863033 -10.633785 -1.0750891 72
4.0235844 -10.657379 -1.1242036 45
4.0100288 -10.654579 -0.63894999 255
4.0122414 -10.548428 -0.99513614 48
4.0098591 -10.542004 -0.424981 70
3.9900131 -10.641945 -0.62683785 255
4.0071754 -10.650612 -0.67442179 255
3.9866714 -10.616791 -1.1496058 6.5
3.9654064 -10.658916 -1.2122991 2
4.0027447 -10.671402 -0.57128537 255
3.9733963 -10.630043 -1.1005255 67
3.9759293 -10.625809 -1.0891852 57
3.9912357 -10.619003 -0.41366661 78
4.0366631 -10.682232 -0.70737183 255
4.0265255 -10.556084 -0.92336559 32
3.9652214 -10.653957 -0.45087326 83
4.0345669 -10.678391 -1.156022 74
3.9773445 -10.621021 -0.39972639 255
4.0626612 -10.556072 -0.34081942 25
4.0493813 -10.640736 -0.61851525 255
4.03195 -10.601379 -0.94177741 100
4.0513487 -10.605499 -0.65033126 255
4.0582461 -10.654785 -1.064989 94
4.0075045 -10.592522 -0.54786867 255
4.0328932 -10.575874 -0.65970397 255
3.9944334 -10.631641 -1.1872363 30
4.0817256 -10.625423 -0.72772837 48
4.0343719 -10.583736 -0.37041986 78
3.972928 -10.642754 -0.52618182 255
4.0472875 -10.598354 -0.96252465 87
4.0093079 -10.557991 -1.0705047 84
4.0568967 -10.557144 -0.46463686 91
4.0480289 -10.566204 -0.63244396 255
4.075521 -10.562347 -0.6651485 255
4.0512676 -10.568848 -0.50623071 255
4.03263 -10.619751 -0.99558508 91
4.0331197 -10.622635 -0.75939709 64
4.0306983 -10.585899 -1.1723651 59
3.9867761 -10.604654 -0.84833014 69
4.0603786 -10.612568 -0.29246292 65
4.0294876 -10.589239 -0.89690703 24
4.0400596 -10.586643 -0.35729378 72
3.9984174 -10.665829 -0.91779125 87
4.0220137 -10.651608 -0.40251765 68.5
4.0558238 -10.570749 -0.93711448 54
3.9844034 -10.625481 -0.67737573 255
4.0893278 -10.568113 -0.96693957 54
4.070107 -10.551411 -0.4737657 255
4.0511532 -10.62005 -1.107595 42.5
4.0672064 -10.594011 -0.63147265 255
4.0236807 -10.573305 -0.90102404 85
4.059165 -10.566116 -0.42958111 78.5
4.0463877 -10.617359 -1.1229455 19
4.0741467 -10.562355 -0.66046935 255
4.0943394 -10.655237 -1.1523321 16
3.9812119 -10.606472 -0.68595487 255
4.0511293 -10.567284 -0.80803353 77
4.0378008 -10.548645 -0.34987551 39
4.0624447 -10.556196 -0.67958355 82
3.9792585 -10.643671 -1.0247982 82
3.9955223 -10.628916 -0.58226007 238
3.9946518 -10.641571 -1.1279783 34
4.0051222 -10.610205 -0.69160551 71
4.0205193 -10.60148 -0.64891899 73
4.0432878 -10.604567 -1.046416 64
4.0350966 -10.597412 -0.61396235 188
4.0041938 -10.595373 -0.37300676 80
4.045228 -10.606016 -1.1324408 49
4.0689178 -10.602386 -1.1375211 50
3.9917226 -10.594042 -1.1252782 76
4.0350003 -10.594568 -0.71108121 152
4.0671959 -10.563951 -0.29798371 22
4.0480442 -10.665781 -0.91655684 75
4.055809 -10.650537 -0.49945706 120
4.0539045 -10.618908 -0.87269378 64
4.0497084 -10.597466 -0.45553201 78
4.0310898 -10.571077 -1.1008687 40.333332
4.0307255 -10.582342 -0.67926216 170.5
4.0559425 -10.56415 -0.4122256 78
4.0165954 -10.628712 -1.00861 78
4.0679607 -10.603176 -1.0399526 64
3.9961314 -10.606194 -1.0213796 48
4.0316238 -10.594915 -0.61335891 255
4.0844173 -10.577772 -0.8457036 53.5
4.0527096 -10.550102 -0.37132391 60
4.0805101 -10.568781 -1.0591631 46
4.0240483 -10.632097 -0.90928507 59
4.0303769 -10.592522 -0.51012552 47.5
4.0467958 -10.607712 -0.86987597 66
4.042994 -10.571529 -0.46918219 28
4.0618429 -10.656898 -1.0199442 56
3.9868193 -10.640528 -0.60781574 255
4.032506 -10.595303 -1.1295638 58
4.0324707 -10.583309 -0.73371214 57
4.0986767 -10.582109 -0.34610254 56
4.0688143 -10.672062 -1.1688665 27.5
4.0179644 -10.641302 -0.7686618 60
4.0819159 -10.597887 -1.0046041 57
4.0368404 -10.60936 -0.59351385 192.5
4.0362625 -10.571756 -0.47160476 143
4.063406 -10.579056 -1.040964 41.333332
4.0253677 -10.588737 -0.64158094 197
4.0531054 -10.578312 -0.25672162 19
4.01824 -10.587225 -0.34291226 63.5
4.0260839 -10.549723 -1.0295856 55
4.1054106 -10.557487 -0.65274668 64.333336
4.045352 -10.545702 -0.58506715 119.25
4.0926914 -10.561523 -0.68468148 50.666668
4.1030464 -10.609404 -0.60590947 39
4.088994 -10.591242 -1.0437803 54
4.0560265 -10.606401 -0.63750464 78
4.0702429 -10.568518 -1.0216751 65
4.0655823 -10.559566 -0.93083549 59.5
4.0169401 -10.628603 -0.73059529 5
4.0906725 -10.620026 -0.9392764 57.5
4.0764675 -10.603458 -0.54040021 178.5
4.0255041 -10.616909 -0.74345171 8
4.0833282 -10.611126 -0.837255 47
4.0906248 -10.602591 -0.81251001 54
4.0438576 -10.586599 -1.0706072 48
4.0402107 -10.589386 -0.87579912 45
4.0853109 -10.60474 -1.0809875 49
4.0925541 -10.639103 -1.0630232 46
4.0891609 -10.606209 -0.90538418 51
4.0845871 -10.619001 -0.83260572 58
4.069313 -10.61203 -0.39906138 91
4.0386839 -10.578598 -1.0071076 50
4.0789013 -10.549862 -0.61779344 81
4.0045185 -10.601107 -0.34035522 56
4.090167 -10.620359 -1.0286918 53
4.0613956 -10.654932 -0.26485449 46
4.0404816 -10.553957 -0.79693663 66
4.093647 -10.602417 -1.0499412 61
4.0469437 -10.63645 -0.69192106 59
4.0757875 -10.61734 -0.34000286 58.5
4.0261574 -10.57381 -0.74479479 54.5
4.0659132 -10.553504 -0.41875404 70
4.0558872 -10.568425 -0.81852609 56
4.1058378 -10.645361 -0.42198172 64
4.0207005 -10.568824 -0.26057941 50
4.1116371 -10.562027 -0.94973958 40.833332
4.0969849 -10.562256 -0.91817284 59.25
4.0783577 -10.597009 -0.99797559 67
4.0710335 -10.602202 -0.69913554 56.5
4.0599194 -10.597001 -0.4019289 62
4.1040058 -10.664724 -0.96308631 75
4.09659 -10.650452 -0.68467921 61.5
4.0776463 -10.6611 -0.40174884 63
4.0872135 -10.627472 -1.1011211 73
4.0682373 -10.615008 -0.55017066 69
4.0285244 -10.565067 -0.68941593 104.5
4.0746737 -10.557045 -0.29010153 59
4.0942326 -10.665196 -1.0096066 66.5
4.0893745 -10.638919 -0.6186052 31.666666
4.0313625 -10.627672 -0.83120316 57
4.0444994 -10.598416 -0.44277665 100
4.0757284 -10.56786 -1.0094873 69
4.0590734 -10.55575 -0.75983417 57.666668
4.0942249 -10.57763 -1.0354403 79
4.0740023 -10.612924 -1.0275408 56
4.062068 -10.586943 -0.68775547 97.291664
4.0778494 -10.585712 -0.3439852 45.333332
4.0745678 -10.565096 -0.95157552 70.25
4.0009689 -10.602981 -0.49130225 78.5
4.0569801 -10.598925 -0.87860096 57
4.0630083 -10.578035 -0.5902462 113.29166
4.0457277 -10.577326 -0.29457048 63
4.1039896 -10.644606 -0.90954787 56.083336
4.0648661 -10.669165 -0.52055782 120.25
4.0941319 -10.555027 -1.1616712 11
4.0492182 -10.597204 -0.99772167 48.666668
4.0631199 -10.588579 -0.40334317 156
4.048193 -10.617714 -1.1240097 36.5
4.0536528 -10.668608 -0.80035436 94.972221
4.0912423 -10.689796 -0.40877497 87
4.0020256 -10.561497 -0.43646625 24.333334
4.0905032 -10.608767 -0.3099173 47.083332
4.0955863 -10.582057 -1.0349103 34
4.0755649 -10.661873 -0.88138103 72
4.0324926 -10.653179 -0.47189111 49.75
4.0854464 -10.647007 -0.32475212 68
4.0151906 -10.63741 -0.99079812 66.090912
4.0793333 -10.606265 -0.53686845 93.833336
4.0933952 -10.571589 -0.31717187 125
4.0749979 -10.616619 -0.30909044 100
4.0965328 -10.609578 -1.1240705 38.223076
4.0764799 -10.608691 -0.95964813 45
4.084506 -10.597031 -0.73993433 88
4.0899844 -10.576258 -0.41424429 88.19445
4.0887494 -10.624135 -1.0766486 46.727779
4.0590949 -10.555172 -0.77103031 86.666664
4.006371 -10.587925 -1.0468308 37.095238
4.1104274 -10.634969 -0.52587306 94.120834
4.0952611 -10.622261 -0.27330577 40.5
4.083364 -10.607386 -0.3987672 64.300003
4.0798793 -10.686961 -0.45624977 65.833336
4.0863605 -10.603073 -0.97607619 58.10714
4.0989456 -10.586614 -0.58067703 131.84999
4.0916958 -10.580133 -0.33765668 65
4.1012731 -10.681618 -0.45153019 145.82143
4.0859828 -10.656495 -1.1140745 8.7254906
4.1012769 -10.610106 -0.73297918 127.07143
4.0780869 -10.586572 -0.40775579 53.30357
4.0455523 -10.557624 -1.1017395 1.2
4.1085005 -10.611045 -1.165926 1.954545
4.0318174 -10.668236 -1.1540123 3.3846149
4.0288496 -10.56509 -1.1309096 5.765368
4.1116896 -10.570927 -0.40277618 117.45417
4.1030016 -10.604995 -0.45005524 127.44167
4.0321302 -10.550844 -0.87317318 17.173334
4.0330353 -10.557602 -0.32059547 20.333334
4.0393319 -10.544067 -0.40048492 3.260417
3.9709053 -10.636361 -0.84142613 28
4.105484 -10.63596 -0.49026865 34
4.0220261 -10.568794 -0.20395344 18
3.9943008 -10.633202 -0.2469728 37
4.0259705 -10.636398 -0.70471227 93
4.0342941 -10.615803 -0.89232695 23.5
4.0497627 -10.664989 -1.0582261 41
4.0162048 -10.650124 -0.45915592 93
4.0122223 -10.610298 -1.0781746 30
3.9836121 -10.6194 -0.35490757 33
3.9771576 -10.663208 -1.2774377 3
4.0015259 -10.66188 -0.71132833 79
3.9906654 -10.601971 -1.2078884 5
3.9936752 -10.606834 -0.89251536 19
4.0184631 -10.584126 -0.50931102 16
4.0387115 -10.669804 -0.63720769 68
3.9783211 -10.615711 -0.6779598 164
3.9891968 -10.609512 -0.84347278 22
4.0265923 -10.651562 -1.1414335 6
3.9897614 -10.61203 -0.61976767 32
3.9794731 -10.608566 -1.0281004 26
3.9866905 -10.639175 -0.68608934 153
4.0149498 -10.667229 -0.72451735 81
4.0497437 -10.66571 -0.63204437 129
3.9883499 -10.634289 -0.74544668 255
3.9880333 -10.60038 -1.3037469 22
4.0472469 -10.596287 -1.1427122 36
3.999979 -10.64389 -1.1632851 66
4.0061626 -10.610374 -1.128669 71
4.0052891 -10.557785 -0.90024161 255
4.0159225 -10.613945 -0.75770271 255
4.0571804 -10.665768 -1.1516321 62
3.9977512 -10.575989 -1.1819296 49
4.0016203 -10.668121 -1.3756827 44
4.0490379 -10.630798 -1.2595005 10
4.0120773 -10.577625 -1.2704192 84
3.9914112 -10.623531 -1.3635331 15
4.081562 -10.658772 -0.69514918 255
4.0697913 -10.641834 -0.52745974 130.5
4.0874 -10.639206 -1.1441734 56
4.0271487 -10.638531 -0.50450683 255
4.0729995 -10.679214 -1.1614845 78
4.0399966 -10.666859 -0.476735 96
4.0049462 -10.550213 -0.74152356 43
4.0439072 -10.60635 -1.1593723 62
4.0282493 -10.585785 -0.51377535 255
4.0389018 -10.669071 -0.54954785 95
4.0218177 -10.610771 -0.51255238 89
4.0182986 -10.628571 -1.1582875 88
4.075489 -10.641056 -1.1962028 26
4.0309038 -10.619373 -0.60917264 129
4.0485706 -10.63666 -1.1240805 60
4.0791936 -10.578316 -0.91072536 75
4.0772033 -10.580606 -0.44688109 88
4.0458937 -10.66877 -1.1364733 34
4.0951567 -10.668564 -0.70141774 197
4.0442624 -10.629675 -1.2742554 47.5
4.0810108 -10.622204 -0.84526885 255
4.0573792 -10.601822 -1.2041885 35.666668
4.0228281 -10.607367 -0.77613759 255
4.0638041 -10.679264 -0.41370201 79
4.0194211 -10.602795 -1.1625825 73
4.0168195 -10.589104 -0.74526399 180
4.0222344 -10.579325 -0.88746226 73
4.0305533 -10.579796 -0.47286886 78
4.0461392 -10.682104 -1.2520591 36
4.0822225 -10.676588 -0.84132546 44
4.0866446 -10.597757 -0.98685598 62
4.0946164 -10.5686 -0.58182752 83
4.1035652 -10.61673 -1.0630461 64
4.0768409 -10.592236 -0.66054714 166.5
4.0618253 -10.609264 -0.97034705 74
4.0625272 -10.607037 -0.57360542 190.5
4.1136012 -10.600611 -0.67695814 255
4.080595 -10.620186 -0.82651913 58
4.0024486 -10.610733 -0.81999892 63
4.0992508 -10.598761 -1.0977366 25
4.0055056 -10.558393 -0.70226049 138
4.0971937 -10.622608 -1.0198812 69
4.0588827 -10.62434 -0.62716007 112
4.0197792 -10.61903 -0.88465554 64
4.0132284 -10.592552 -0.49889576 59.5
4.0536127 -10.576273 -0.90510011 50
3.9858227 -10.594084 -0.90014642 72
4.0971079 -10.621275 -0.87966847 63
4.0226316 -10.599825 -1.1256403 44.5
4.0249071 -10.591599 -0.74495959 41
4.0265532 -10.582106 -0.36216041 51.5
4.0793753 -10.582895 -0.84452856 59
4.0644569 -10.578615 -0.46371663 64.5
4.0950422 -10.561964 -1.113057 50
4.0407114 -10.604488 -1.1053382 69
4.0361013 -10.584177 -0.72627974 158
4.0443325 -10.587082 -0.34433967 59
4.0539045 -10.565128 -0.35213399 64.5
4.0518103 -10.686499 -0.8713215 11
4.0182619 -10.647791 -0.85478365 67
4.0924501 -10.665598 -0.85633731 62
4.1075087 -10.660172 -0.47474912 80
4.0921221 -10.612793 -0.45720947 79
4.0805092 -10.581696 -1.0757527 63
4.0080938 -10.590525 -1.080714 61
4.0202703 -10.585516 -0.69850248 94.5
4.0333424 -10.573896 -0.31771821 57
4.0171242 -10.562983 -1.0160396 70
4.0429878 -10.617828 -0.96207482 52.333332
4.0543232 -10.610415 -0.58194357 118.33334
4.0107307 -10.573759 -1.0654376 63
4.104785 -10.565649 -0.67943829 112.33334
4.1045609 -10.627909 -0.53882855 56
4.0076027 -10.615841 -0.55697232 127.5
4.0208073 -10.608713 -0.95552486 53
4.0123911 -10.545353 -0.5996992 147
4.0963764 -10.618263 -0.942141 71
4.0886669 -10.654097 -0.83436286 48.5
4.107914 -10.625803 -0.48654357 60.333332
4.0947981 -10.637429 -1.1176164 60
4.0645008 -10.565315 -0.93177837 58.833336
4.0314903 -10.543178 -1.0007716 60
4.0078859 -10.542249 -0.72336727 55
4.0512819 -10.573439 -1.1201859 58
4.0301037 -10.636094 -1.2027322 30.200001
4.0375061 -10.546171 -0.56205583 85.333328
4.096879 -10.579707 -0.9713757 60.75
4.0701418 -10.587734 -0.47909388 101.83334
4.0191364 -10.572791 -1.0301005 35.666668
4.0420828 -10.566657 -0.79111695 44
4.0862217 -10.563131 -0.55123043 65
4.0796309 -10.600442 -1.0419461 57.200001
4.0072336 -10.574137 -0.58065331 76
4.072587 -10.57754 -0.76848793 65
4.0930204 -10.604131 -0.92738819 61.5
4.0741129 -10.58334 -1.0558168 53.333336
4.0877542 -10.563583 -0.67489684 124.5
4.0666142 -10.567831 -0.39542782 54
4.1031237 -10.563835 -1.0795193 62
4.0681076 -10.56942 -0.80797142 44.900002
4.0489674 -10.563869 -0.44087416 97.074997
4.0797729 -10.613028 -0.33097577 23
4.0495186 -10.603521 -1.1065595 13.55
4.0483274 -10.546957 -0.75691986 47.25
4.0922799 -10.664914 -1.0756111 18.888889
4.0691872 -10.564392 -0.6570372 54.666668
4.0910811 -10.598449 -0.82325238 38.5
4.0819092 -10.583084 -0.40839812 45.25
4.0921879 -10.594183 -0.86172736 66
4.0899472 -10.569416 -0.37780413 60.666668
4.11447 -10.606564 -0.65172905 94.583336
4.0688138 -10.581916 -0.41784611 48
4.06322 -10.674619 -1.0850266 24.450001
4.103375 -10.575828 -0.58654296 122.16666
4.0462461 -10.636972 -0.98098832 40.799999
4.0899372 -10.560204 -0.59074402 80
4.1096578 -10.586482 -0.78054595 59.5
4.1116028 -10.557528 -1.1236185 89.666664
4.052031 -10.656115 -1.2078005 7.3000002
4.0178041 -10.554261 -1.0999409 46.809525
4.094749 -10.640488 -0.31923974 1
4.0629911 -10.550572 -0.95628291 13.461538
4.0700049 -10.634767 -1.0829138 42.5
