# .PCD v0.7 - Point Cloud Data file format
VERSION 0.7
FIELDS x y z intensity
SIZE 4 4 4 4
TYPE F F F F
COUNT 1 1 1 1
WIDTH 1258
HEIGHT 1
VIEWPOINT 0 0 0 1 0 0 0
POINTS 1258
DATA ascii
23.782043 -28.453369 -0.21725205 2.2750001
23.793451 -28.403038 0.061346982 1.3
23.873381 -28.614645 0.47669956 3
23.618855 -28.56951 0.47333834 6.25
23.569759 -28.348551 0.47864768 1.5
23.579655 -28.435925 -0.93742824 5.333333
23.59153 -28.417263 -0.53328443 3.2
23.651482 -28.458288 -0.26145005 0
23.58971 -28.468826 -0.12453865 3.4666669
23.596878 -28.496593 0.28138185 0.75
23.654055 -28.572132 0.69347763 36.25
23.645388 -28.666447 1.376014 7
23.648121 -28.621546 0.61144972 18.5
23.722414 -28.612061 0.88888216 47
23.575226 -28.520786 -0.83852613 3.666667
23.573818 -28.539021 -0.31482148 3.5
23.790012 -28.620993 0.74126601 30.5
23.701603 -28.483501 -1.0995599 3.5
23.656693 -28.403271 -1.0992278 7.5
23.683535 -28.483109 -0.71360695 4.5
23.663321 -28.382973 -0.71498048 4.416667
23.717081 -28.521326 -0.19740973 4.166667
23.674894 -28.374447 -0.19902526 0.75
23.757706 -28.568064 0.19214119 0
23.669798 -28.410856 0.1898116 0
23.67083 -28.480753 0.19006743 7
23.583412 -28.475067 -1.1535606 6
23.563847 -28.386509 -1.156987 6.333333
23.609324 -28.5023 -0.77317959 4.583333
23.570992 -28.385057 -0.77654272 3.833333
23.578297 -28.36248 -0.39694935 0
23.606319 -28.52426 -0.2651847 2.916667
23.565372 -28.420883 -0.26827794 2.5
23.598196 -28.525663 0.11365861 6.333333
23.597759 -28.377382 -0.01737744 0.5
23.755322 -28.566393 0.50287288 27.375
23.753925 -28.729649 0.89091891 3
23.756226 -28.616621 0.59609634 26
23.590347 -28.536253 -0.77538842 0.25
23.579437 -28.432461 -1.1081568 7.4000001
23.59314 -28.450813 -0.74480474 3.5999999
23.812462 -28.409735 -1.006565 5
23.821371 -28.405066 -0.65219343 4.0333328
23.591429 -28.641033 0.59510463 35
23.619085 -28.556551 -0.53048688 0
23.626328 -28.566025 -0.30701429 0
23.551321 -28.379011 -0.20110281 0.5
23.605427 -28.564156 -0.083458498 1
23.602642 -28.584433 0.25475782 0.75
23.59623 -28.392349 -1.0449471 4.666667
23.577671 -28.426033 -0.93304938 6.9000001
23.592106 -28.452579 -0.49525911 3.5333331
23.606438 -28.46657 -0.16610569 3.5
23.60947 -28.490953 0.16233951 4.708333
23.765221 -28.329021 -1.0723619 6
23.763227 -28.453976 -0.96438301 5.3249998
23.761349 -28.432821 -0.53879118 5
23.77039 -28.45051 -0.11271796 3.416667
23.775793 -28.492796 0.31391135 5.0999999
23.603666 -28.566544 0.73198164 23.958334
23.577351 -28.430437 -1.1234994 5.5
23.581413 -28.449009 -0.81121773 3.2
23.583344 -28.460918 -0.39576784 2.178571
23.573292 -28.466515 0.019861899 3.4000001
23.588654 -28.525473 0.33240864 4.8000002
23.721886 -28.738304 0.97466177 4
23.922213 -28.483395 -1.277984 11
23.835913 -28.606302 -1.1559453 18
23.662281 -28.438946 -1.0453627 9.0249996
23.665686 -28.43137 -0.64778417 1.6
23.667175 -28.455795 -0.15083113 2.9761901
23.66433 -28.447725 0.24695477 2.352381
23.806519 -28.668482 1.0620711 2
23.785397 -28.342377 -1.0939105 9.670454
23.818388 -28.354794 -0.80390596 3
23.853037 -28.482414 -0.70008242 0.5
23.819782 -28.420311 -0.70266604 7.5
23.83392 -28.377312 -0.31896713 4
23.865665 -28.521179 0.078391999 2.5
23.8323 -28.408346 0.071792811 4.875
23.864407 -28.523457 0.37154552 1.5
23.834202 -28.42783 0.36567232 4
23.709866 -28.339638 -1.1953621 14.555555
23.788757 -28.371889 -0.91209918 4.5
23.798418 -28.34996 -0.53499037 2.5666671
23.797453 -28.444866 -0.42598075 6
23.796589 -28.423567 -0.14545508 4.75
23.855373 -28.523928 0.2526136 0.5
23.733847 -28.413538 0.32484156 7.688889
23.638655 -28.52132 0.52284843 45.75
23.654869 -28.412666 -1.1126322 5.5999999
23.65275 -28.426651 -0.83354348 5
23.741058 -28.554466 -0.35052085 0
23.655464 -28.448517 -0.46149385 5.333333
23.755398 -28.553482 -0.16677366 0
23.655209 -28.395624 -0.10388695 2.666667
23.668047 -28.498756 -0.086583361 4.458333
23.673801 -28.361546 0.16897883 0
23.719303 -28.563353 0.20408727 0
23.596373 -28.463797 0.36287177 13.233334
23.629065 -28.755833 1.2479725 7.1428571
23.75589 -28.405035 -1.2021897 14
23.77734 -28.388859 -0.93616319 4.75
23.773376 -28.333292 -0.58599448 4.0999999
23.795979 -28.44804 -0.56487447 3.75
23.794754 -28.43483 -0.20857315 3.05
23.870108 -28.541462 0.26714295 0
23.790611 -28.448521 0.24506183 4.666667
23.592602 -28.416584 0.67034227 29.333334
23.855949 -28.675568 0.83724254 2.5
23.593782 -28.523113 0.68824977 30.0625
23.578436 -28.33988 0.92550606 4
23.800236 -28.734457 1.1156902 7
23.589558 -28.506577 1.0450969 14.7875
23.753708 -28.419266 -0.62261474 4.0555549
23.767445 -28.432323 -0.18468133 2.2
23.75951 -28.415472 0.16192964 4.4404759
23.631386 -28.422638 0.58620393 25.75
23.534016 -28.350077 0.65134716 15.25
23.613176 -28.56225 0.69532752 18.75
23.559128 -28.398962 0.9230535 23
23.648964 -28.596798 1.0554569 10.515151
23.542618 -28.323656 1.2582641 10
23.570747 -28.514277 1.470742 8.606061
23.589083 -28.509008 1.7432904 11.330357
23.69548 -28.485397 -1.2121539 22.5
23.603268 -28.454121 -1.2120665 15
23.621685 -28.337177 -0.98104155 5.833333
23.658335 -28.444279 -0.95873034 1.75
23.621174 -28.397429 -0.96733093 8.5
23.648216 -28.435123 -0.52921736 2.666667
23.620831 -28.364853 -0.6301899 6.75
23.662416 -28.425495 -0.10097513 2.1517861
23.648476 -28.419838 0.24246117 3.1388891
23.687107 -28.537647 0.35660622 0
23.621092 -28.700575 1.1650867 6
23.73978 -28.639862 1.9866649 0
23.627769 -28.37392 -1.0181551 7
23.676664 -28.485403 -0.90968847 0.25
23.636269 -28.352619 -0.59914052 4.166667
23.652328 -28.46114 -0.57504082 4.5666671
23.650547 -28.426563 -0.16023356 2.3809519
23.741577 -28.560495 0.21255784 1
23.647667 -28.442081 0.2654177 3.9642861
23.678534 -28.581423 2.0410144 1.375
23.688229 -28.626678 2.1434207 1
23.673252 -28.468315 2.1990478 1.5
23.697607 -28.631926 2.3316717 1.25
23.890388 -28.711494 -1.2242622 15.2
23.60854 -28.506897 -1.1646305 8.1000004
23.694092 -28.444254 -0.67910582 1
23.665901 -28.365471 -0.78167194 6.3888888
23.702385 -28.396471 -0.35387677 0.91666698
23.663589 -28.368834 -0.36075345 6.083333
23.685324 -28.370707 0.05976082 3.420635
23.660484 -28.382931 -0.10606838 6.333333
23.74197 -28.515106 0.26462501 0.5
23.673473 -28.369307 0.39476883 7.5
23.708879 -28.495415 0.42654884 1
23.745193 -28.692593 0.98588854 2.666667
23.698734 -28.740454 1.3330306 5.1999998
23.695633 -28.41184 2.0526178 1
23.691757 -28.55369 2.1730349 1.7888891
23.734726 -28.568213 2.4628606 1.357143
23.692284 -28.439604 -1.1317339 4
23.636913 -28.381235 -1.1421906 6.583333
23.661369 -28.367218 -0.81120253 2.333333
23.634457 -28.37705 -0.80764651 7.916667
23.657478 -28.345337 -0.39824796 2.8888891
23.631886 -28.388351 -0.38783246 6.5555549
23.655516 -28.340059 0.016754121 3.7
23.679115 -28.474091 0.04967463 0.83333302
23.630424 -28.416937 0.11705972 8
23.668217 -28.456972 0.29524451 2.2
23.794109 -28.668701 0.86268705 1.5
23.673422 -28.756607 1.0363922 4.4000001
23.65807 -28.477678 2.0956173 1.952381
23.660549 -28.503342 2.5545261 1.8134919
23.690332 -28.602737 2.7716553 1
23.650864 -28.493307 2.9211049 2
23.670385 -28.578491 2.9478745 1.5
23.666283 -28.494696 -1.1827778 9.8571424
23.628143 -28.428921 -0.86109555 4.757143
23.6175 -28.388262 -0.45541352 4.125
23.631899 -28.38162 -0.04382281 2.2857139
23.67337 -28.532021 0.073573373 0
23.61655 -28.388033 0.28694296 4.4749999
23.648352 -28.519556 0.31759071 0.41666701
23.72649 -28.695889 0.86445892 1.5
23.613441 -28.698196 1.1858348 6
23.63343 -28.437016 2.0844867 1.666667
23.627731 -28.57225 2.1109443 2
23.632786 -28.433805 2.2615294 1
23.629078 -28.54513 2.4651966 1.580952
23.640022 -28.570309 2.8422651 1.5
23.784454 -28.614651 -1.2656316 21.200001
23.571882 -28.443598 -1.0467874 4
23.592585 -28.39205 -0.64314961 1.222222
23.597605 -28.376608 -0.22990897 0
23.558147 -28.468517 -0.20482072 4.125
23.593563 -28.579714 -0.17188621 0.5
23.628729 -28.368914 0.10389259 0
23.57202 -28.431805 0.11789095 0.66666698
23.789341 -28.324669 0.70194912 4
23.818365 -28.317495 0.87762034 3.5
23.595295 -28.575752 2.3132699 1.583333
23.601355 -28.691828 2.4387043 1.5
23.602428 -28.552155 2.6778598 1
23.608078 -28.695278 2.7201636 1.4
23.616365 -28.503426 -1.1524305 13.5
23.570538 -28.428417 -0.75200522 5.1269841
23.58802 -28.419485 -0.33724529 2.625
23.586098 -28.40554 0.075485051 2.8857141
23.601719 -28.512241 0.193376 1.666667
23.644699 -28.753002 1.0258009 3.571429
23.614998 -28.512344 2.2470114 1.928571
23.653801 -28.629566 2.2939675 1
23.614899 -28.487686 2.5107288 1.333333
23.635231 -28.592051 2.6408715 1.514286
23.631004 -28.593283 3.1080408 1.4404759
23.548931 -28.355228 -1.1701126 9.3571434
23.922283 -28.488144 -1.2247484 16
23.599125 -28.459272 -1.0447294 2.666667
23.586576 -28.405146 -0.72531283 4.8833332
23.589695 -28.405752 -0.30240297 3.354167
23.633026 -28.523729 -0.17094029 0
23.614576 -28.349133 0.015882241 1
23.594021 -28.467299 0.14332245 3.6071429
23.692131 -28.716749 0.75644463 0
23.642092 -28.740448 1.0991091 3.8888891
23.609747 -28.443726 2.0363915 1
23.600037 -28.57688 2.0820937 1.833333
23.594189 -28.55921 2.3467798 1.916667
23.689236 -28.6868 2.5182362 0
23.599903 -28.532684 2.7106977 1.75
23.630033 -28.665077 2.7706933 1
23.598003 -28.611166 3.2196536 1.428571
23.91571 -28.654366 -1.2388108 13.75
23.589907 -28.325451 -0.83770031 3.7777779
23.601746 -28.428822 -0.79682982 4
23.570236 -28.40609 -0.63638628 11
23.61375 -28.349316 -0.40533042 1.2
23.588165 -28.440344 -0.37050819 5.125
23.612528 -28.323311 0.00670993 0.33333299
23.576921 -28.417807 0.04006362 6.4888892
23.603714 -28.487244 0.15281647 3.375
23.613029 -28.346975 0.35280263 0
23.639938 -28.614801 2.013881 1
23.602871 -28.451059 2.121659 1.75
23.601109 -28.548342 2.2485316 1.678571
23.590023 -28.565542 2.713083 1.857143
23.596199 -28.509235 2.9785516 1.375
23.63707 -28.637836 3.1413984 1.0333329
23.608334 -28.326614 -0.9368431 3
23.577984 -28.370123 -0.91757911 3
23.612844 -28.337097 -0.67587894 1.5
23.588402 -28.46073 -0.70862681 5.2178569
23.647949 -28.327612 -0.33778536 0.25
23.582169 -28.458706 -0.28655553 4.8000002
23.644709 -28.563623 -0.23999219 0
23.66044 -28.33432 0.0073339501 0
23.599155 -28.400164 -0.055705529 1
23.599159 -28.500332 0.15415801 2.633333
23.611935 -28.555321 2.0802078 1.571429
23.604855 -28.580246 2.3615155 1.916667
23.681808 -28.701145 2.5289016 0.5
23.61326 -28.532305 2.7182851 1.375
23.623535 -28.660627 2.773385 1.458333
23.730978 -28.761953 -1.2139926 17
23.625196 -28.391312 -0.94172281 4.3222222
23.620512 -28.507996 -0.88983059 4.291667
23.61833 -28.484503 -0.38735241 4.273809
23.691488 -28.601479 -0.16301592 0
23.649734 -28.40156 0.0042861602 0.875
23.639828 -28.55504 0.068193182 3.5892861
23.636496 -28.592819 2.2533193 1.730159
23.702847 -28.706423 2.5045161 0.5
23.661522 -28.515265 2.693233 1.25
23.665403 -28.666401 2.7558727 1.171429
23.645536 -28.647921 3.1235118 1.401786
23.614082 -28.443468 -0.96983284 2.833333
23.614635 -28.537573 -1.0158715 5.7222219
23.641048 -28.418425 -0.55676579 1.333333
23.617123 -28.53368 -0.51169801 5.938889
23.661842 -28.612059 -0.39508593 0.5
23.647219 -28.436581 -0.21320076 0.33333299
23.681149 -28.411734 -0.05214484 0
23.635033 -28.575445 -0.076132968 3.8809519
23.659092 -28.453302 0.21448295 0
23.807224 -28.358683 0.96940172 4
23.683147 -28.518064 2.2299497 1
23.600861 -28.647736 2.0732505 2.253968
23.635897 -28.614216 2.5228131 1.791667
23.666725 -28.72497 2.574599 1.075
23.644911 -28.675909 2.92242 1.520833
23.600946 -28.496429 -1.0283872 5.5972219
23.595055 -28.460432 -0.62111312 4.4464278
23.676888 -28.585388 -0.48347485 0
23.612324 -28.407253 -0.22081377 1.928571
23.620575 -28.550667 -0.16338874 2.0619049
23.605442 -28.511404 0.2386425 2.645833
23.583443 -28.613108 1.9883142 2.428571
23.611004 -28.602083 2.4466541 1.9
23.625313 -28.688478 2.5764928 1.375
23.62319 -28.641184 2.9361863 1.482143
23.65094 -28.345566 -0.98766553 2
23.588097 -28.499956 -1.0944366 6.5694451
23.628834 -28.37361 -0.8078897 2
23.592154 -28.51116 -0.67118245 5.3571429
23.647427 -28.605143 -0.54981351 0
23.66489 -28.376232 -0.38468373 0.25
23.592087 -28.45359 -0.35953709 2.25
23.636261 -28.409718 -0.12241131 0
23.626665 -28.577553 -0.2273322 2.565079
23.643597 -28.405022 0.043358449 0
23.601816 -28.535061 0.17057207 2.928571
23.649704 -28.425344 0.38745019 0
23.613728 -28.622356 2.3574207 1.972222
23.661264 -28.739014 2.5066347 1.166667
23.644741 -28.554533 2.71577 1
23.620016 -28.690908 2.8485982 1.828571
23.636223 -28.670715 3.1366248 1.5
23.825531 -28.547295 -1.1672044 10
23.567972 -28.451212 -1.0273463 7.0608459
23.637098 -28.548824 -0.82357407 1
23.653263 -28.331396 -0.73935723 2
23.595396 -28.415291 -0.62514877 5
23.613089 -28.515249 -0.5871734 3.738095
23.688862 -28.477093 -0.098115519 0
23.612282 -28.499031 -0.17896913 3.041667
23.697784 -28.608866 0.033776179 0
23.636978 -28.38344 0.19591866 0
23.593472 -28.483463 0.2265235 4.0952382
23.640247 -28.58956 0.3528493 0.33333299
23.627075 -28.404562 0.45172602 0
23.651985 -28.460196 2.0143147 1
23.703653 -28.695652 2.1099422 1
23.649035 -28.491402 2.473628 1
23.608589 -28.555582 2.2999899 2.0333331
23.635445 -28.650866 2.432066 1.666667
23.654678 -28.495916 2.7553 1
23.631569 -28.651857 2.8924365 1.77381
23.67268 -28.508524 3.1477387 1
23.6285 -28.626049 3.1680727 1.571429
23.663998 -28.765764 -1.2269416 14
23.628458 -28.363134 -0.71061814 2
23.600174 -28.465326 -0.75682038 4.9714289
23.658245 -28.57131 -0.63583493 0
23.598452 -28.431025 -0.44055992 4.416667
23.640934 -28.390377 -0.20598798 0
23.616829 -28.527353 -0.32430136 3.761905
23.615665 -28.537132 0.087197714 3.7142861
23.624655 -28.60614 2.215775 1.875
23.688122 -28.719469 2.4515934 1
23.620972 -28.565166 2.6525774 1.541667
23.629616 -28.675701 2.690558 1.875
23.622221 -28.639021 2.9550045 1.5
23.554359 -28.430233 -1.2212901 8.7777777
23.613453 -28.438709 -0.89295483 4.101191
23.636501 -28.556784 -0.69080281 0
23.609234 -28.425795 -0.57212508 4
23.621437 -28.529797 -0.53805733 3.976191
23.62558 -28.531765 -0.052572969 3.708333
23.573353 -28.513281 0.33853352 3.942857
23.640945 -28.634689 2.0407338 1.5
23.627739 -28.603657 2.4654193 1.896825
23.673458 -28.707613 2.5995135 1
23.621321 -28.591412 2.8191445 2
23.641422 -28.665808 2.9395831 1.625
23.655281 -28.677055 3.2290399 1.25
23.677404 -28.357298 -0.78234231 1
23.61758 -28.489193 -0.90434337 6.8968248
23.623985 -28.472929 -0.42878732 3.9595239
23.670391 -28.595907 -0.39208165 2
23.631916 -28.431065 -0.040887639 0.33333299
23.6413 -28.554033 -0.0064280299 3.55
23.615761 -28.609428 2.13399 2.375
23.669384 -28.706652 2.0890055 1.361111
23.617653 -28.574017 2.3882875 1
23.630356 -28.649147 2.4994295 1.928571
23.629936 -28.647734 2.7684553 1.571429
23.632507 -28.385977 -0.55096048 1
23.600063 -28.511076 -0.678958 4.7301588
23.65263 -28.388847 -0.23116633 0
23.599642 -28.513302 -0.28324887 3.5
23.666771 -28.619339 -0.25459224 0
23.597218 -28.482208 0.10407053 2.583333
23.722095 -28.643005 -0.0071207099 0
23.62048 -28.589703 0.13087867 3.333333
23.615608 -28.639793 2.1813538 2
23.620178 -28.640007 2.4438958 1.857143
23.549759 -28.399555 -1.1971787 12.75
23.613102 -28.437027 -0.94562209 1.583333
23.582466 -28.392109 -0.55515194 5.1071429
23.593735 -28.417892 -0.14724222 3.0982139
23.582861 -28.385485 0.24299401 4.1111112
23.618248 -28.492662 0.27555799 2.416667
23.656584 -28.715935 1.1499804 4.0444441
23.621716 -28.538061 2.36584 1.642857
23.698975 -28.641045 2.5059323 1
23.619942 -28.527367 2.6294084 1.833333
23.676872 -28.640158 2.6781826 1
23.644619 -28.720303 -1.2168813 15
23.548231 -28.406782 -1.0700717 8.0357141
23.624668 -28.326662 -0.85207206 2
23.581425 -28.391821 -0.83116913 3
23.628693 -28.342136 -0.52109861 1
23.58423 -28.479231 -0.64179534 4.9523811
23.596111 -28.497379 -0.23308393 3.0625
23.58997 -28.46423 0.15904829 3.3047619
23.641304 -28.581226 0.27853835 1.375
23.619209 -28.609478 2.2872748 1.857143
23.614067 -28.574686 2.5433733 1.833333
23.639374 -28.678715 2.5799017 1.5
23.641457 -28.408531 -0.90880859 3.5
23.6096 -28.525772 -0.87374628 5.2857141
23.644184 -28.412704 -0.42215472 1
23.612637 -28.539051 -0.46797884 4.704762
23.677685 -28.645418 -0.35454842 0.166667
23.678175 -28.41297 -0.097444654 0
23.608505 -28.505451 -0.077554613 3.333333
23.629688 -28.610142 -0.047149751 4.583333
23.683575 -28.430168 0.15050352 0
23.666203 -28.445787 0.31411964 0
23.663668 -28.533115 2.1699076 1
23.622419 -28.644268 2.0962849 1.928571
23.685793 -28.752512 2.1425872 1
23.623812 -28.60754 2.4388957 1.5
23.640587 -28.721498 2.4720554 1.875
23.623909 -28.678032 2.7248359 1.714286
23.568472 -28.43232 -1.0418137 7.3275609
23.812016 -28.540949 -1.1857575 7
23.615616 -28.530764 -0.85643363 1
23.580231 -28.436785 -0.72159243 7.2777781
23.598061 -28.511793 -0.62258756 4.25
23.617783 -28.359232 -0.4221862 0.66666698
23.603062 -28.486368 -0.23183103 2.803571
23.599009 -28.508059 0.16883616 4.7142859
23.645952 -28.457966 2.3861685 1
23.593079 -28.536783 2.1268091 2.166667
23.610445 -28.614384 2.2340841 2.0666671
23.605316 -28.583164 2.6620767 1.833333
23.612635 -28.619537 2.9416082 1.5
23.767862 -28.62291 -1.2470902 14
23.551352 -28.408581 -0.72829688 4.9375
23.558659 -28.368752 -0.3419888 2.95
23.582764 -28.502899 -0.31181818 2.333333
23.560434 -28.462559 0.07152389 3.6607139
23.576689 -28.587658 2.1193843 1.619048
23.623558 -28.654972 2.3164446 1
23.584316 -28.632969 2.5610921 1.5
23.562773 -28.500797 2.796268 1
23.583221 -28.468542 -1.1138239 5.9749999
23.565977 -28.440781 -0.88194323 7.5555549
23.574249 -28.440351 -0.40958834 4.2857151
23.575361 -28.451977 -0.01551619 4.3249998
23.605167 -28.544296 0.084101111 0
23.589195 -28.495052 2.0023086 1.5
23.598967 -28.597998 2.1068449 1.833333
23.600189 -28.598213 2.4501328 1.857143
23.596954 -28.618336 2.7151167 1.714286
23.569363 -28.434546 -1.0450575 5.1805558
23.556921 -28.420614 -0.73128045 5.9873009
23.574944 -28.435804 -0.25496376 3.25
23.618673 -28.549517 -0.14933844 0
23.555565 -28.425907 0.13402827 3.166667
23.573502 -28.511692 0.15348645 5.9333329
23.576691 -28.562033 2.0134852 2.4000001
23.603535 -28.611736 2.1993666 1.571429
23.587011 -28.576929 2.6196957 1.845238
23.639465 -28.692818 2.7465212 1
23.579304 -28.577473 2.8830435 1.5
23.610695 -28.67634 2.9121158 1.5
23.602997 -28.526625 -1.1944665 6.5
23.586262 -28.384281 -1.0715293 9.5
23.599382 -28.505138 -0.95991367 4.8809519
23.600668 -28.481939 -0.56865048 4.523809
23.600925 -28.485723 -0.093524501 4.125
23.643169 -28.597513 0.01497422 0.33333299
23.593594 -28.457708 0.29407346 1.833333
23.600315 -28.559454 0.31790274 7.25
23.61651 -28.616684 2.0331931 1.833333
23.615356 -28.62174 2.3754072 1.896825
23.608234 -28.617855 2.8104422 1.8
23.645439 -28.714849 2.8434823 1.166667
23.624866 -28.559834 3.077688 1
23.62347 -28.686934 3.1010001 1.666667
23.656296 -28.705257 -1.2070093 7.75
23.594097 -28.377937 -0.89180344 3.1111109
23.613914 -28.52791 -0.85194653 2.883333
23.597113 -28.481962 -0.5460791 4.3833332
23.603947 -28.480085 -0.071181133 3.1805561
23.64839 -28.597492 0.11943655 0.5
23.579384 -28.475914 0.32039553 4
23.59461 -28.592545 0.34938413 2.25
23.657736 -28.643721 1.9972584 1.285714
23.613777 -28.626719 2.4085104 1.944445
23.691515 -28.733772 2.6321042 0
23.605103 -28.600693 2.8409185 1.75
23.644798 -28.715195 2.8794024 1.166667
23.611658 -28.568048 3.1099241 1
23.615755 -28.679731 3.1335735 1.8
23.644388 -28.558321 -1.2198365 10.666667
23.59549 -28.39679 -1.024546 5.375
23.613888 -28.520882 -0.98748541 4.7750001
23.602184 -28.489807 -0.59580994 4.9404759
23.609489 -28.485701 -0.11807111 3.57037
23.654415 -28.59885 -0.00363702 0.33333299
23.614607 -28.444302 0.27021113 1.833333
23.619894 -28.567101 0.30319348 4.4000001
23.630543 -28.618334 2.0375428 1.75
23.618645 -28.599302 2.3749154 1.866667
23.66782 -28.718958 2.5072126 1.25
23.629204 -28.562063 2.7244499 1.333333
23.634712 -28.68852 2.8458965 1.619048
23.623886 -28.655798 3.1089866 1.571429
23.583435 -28.457214 -1.1707605 10.5
23.64607 -28.543816 -1.1468048 9.4333334
23.601658 -28.381775 -0.9510994 3
23.605087 -28.500677 -0.83497858 5.6190481
23.61364 -28.475693 -0.44159669 3.9384921
23.606932 -28.46727 0.034673709 4.4444451
23.633331 -28.575573 0.06628944 2.1111109
23.603848 -28.523592 0.36783177 4.5999999
23.625097 -28.61018 2.115962 1.928571
23.629356 -28.566029 2.5429568 1.583333
23.652773 -28.689222 2.5795665 1.253968
23.625374 -28.648029 3.0093927 1.571429
23.577686 -28.426975 -1.1429944 9.166667
23.60368 -28.49345 -1.0427463 6.014286
23.600327 -28.41662 -0.58116114 3.761905
23.603676 -28.458872 -0.24967021 3.9523809
23.662212 -28.576124 -0.13421899 0
23.594521 -28.438017 0.14307702 3.125
23.613472 -28.526798 0.24818683 4.6523809
23.614838 -28.555378 2.3071654 1.975
23.664158 -28.674482 2.3508153 1.125
23.64551 -28.497858 2.6562757 1.166667
23.622761 -28.62998 2.7661915 1.797619
23.629122 -28.615208 3.2204714 1.392857
23.809643 -28.55925 -1.2197611 12
23.578243 -28.436888 -1.1678059 7.958333
23.613218 -28.513266 -1.0635657 4.5476189
23.624306 -28.47217 -0.59102821 4.333333
23.612215 -28.481598 -0.26859531 4.2761898
23.674488 -28.592512 -0.15293017 0
23.60397 -28.459087 0.12450275 3.5
23.618731 -28.54616 0.22980747 4.742857
23.628098 -28.554665 2.2954121 1.666667
23.662445 -28.689545 2.3390307 1.3
23.625559 -28.65394 2.7597394 1.763889
23.629677 -28.654367 3.2193246 1.380952
23.561201 -28.394979 -1.1191806 6.2857141
23.601963 -28.499527 -1.0062089 4.7206349
23.608229 -28.446676 -0.53701067 4.0277781
23.603157 -28.483002 -0.20618843 4.1142859
23.659891 -28.581772 -0.094352111 0.66666698
23.60947 -28.416262 0.176273 1.875
23.590706 -28.53019 0.28499341 4.2833328
23.675903 -28.733006 0.83323658 3.5
23.647213 -28.616249 2.0376008 1.428571
23.614452 -28.538792 2.352819 1.791667
23.650108 -28.664043 2.3947215 1.3
23.622078 -28.62249 2.8177459 1.84127
23.842403 -28.6397 -1.2434665 13.6
23.600124 -28.464714 -0.9592281 4.7361112
23.618378 -28.434353 -0.48425752 3
23.700718 -28.58927 -0.35833257 0
23.601879 -28.458216 -0.15909396 4.1999998
23.634594 -28.558058 -0.13019447 2.666667
23.582895 -28.522455 0.33344662 9.3809528
23.61097 -28.591246 2.0695305 2.625
23.659836 -28.678806 2.1044686 1
23.635616 -28.519148 2.4062285 1.25
23.62957 -28.647276 2.4320278 2
23.619511 -28.629356 2.867579 1.738095
23.838535 -28.611431 -1.2361642 15.8
23.597881 -28.337824 -1.0641632 5.166667
23.613564 -28.483311 -0.93936574 4.9761901
23.632416 -28.440285 -0.46790063 2.625
23.689377 -28.602455 -0.2602669 0
23.619318 -28.485077 -0.13688588 5.0500002
23.65873 -28.581308 -0.02831316 1.875
23.624451 -28.53854 0.27676088 4.4285722
23.616623 -28.61278 2.0882649 2.4000001
23.675503 -28.690517 2.2091622 1
23.628601 -28.564342 2.4252553 1.5
23.648373 -28.672523 2.4561052 1.566667
23.639988 -28.652479 2.8924112 1.746032
23.744663 -28.558142 -1.2331882 16
23.588512 -28.392998 -1.032654 4.75
23.609421 -28.476162 -0.92738467 4.8472219
23.616192 -28.440023 -0.45446652 3.0555551
23.686661 -28.590199 -0.24939615 0
23.601898 -28.478529 -0.12560868 5.6444449
23.643312 -28.571695 -0.01771629 2.125
23.607391 -28.510584 0.28211015 4.3095241
23.615929 -28.577707 2.0971301 2.366667
23.667168 -28.67812 2.2210851 1
23.625462 -28.543528 2.4373469 1.5
23.63987 -28.659994 2.468154 1.566667
23.626474 -28.642147 2.9034827 1.730159
23.57346 -28.34762 -1.2294648 8.8571424
23.607573 -28.505322 -1.182853 5.5
23.598049 -28.397232 -1.0527961 3
23.603912 -28.473822 -0.86889595 4.7857151
23.622019 -28.501545 -0.45914596 3.75
23.717842 -28.598839 -0.26809567 0
23.606882 -28.468681 -0.069981582 4.333333
23.639503 -28.56773 -0.041388389 2.5777781
23.638578 -28.388557 0.23196006 0
23.593018 -28.49659 0.33385986 3.428571
23.649204 -28.611435 2.0886052 1.619048
23.690069 -28.691248 2.2901397 1
23.632507 -28.539219 2.4984934 1.166667
23.646725 -28.663214 2.5304406 1.708333
23.633476 -28.638229 2.9659913 1.833333
23.712387 -28.59634 -1.1954427 8.166667
23.613562 -28.351665 -1.0193313 3
23.607273 -28.452467 -0.82784694 4.5714288
23.633406 -28.430429 -0.35048085 2.541667
23.679916 -28.583839 -0.22629733 0
23.61882 -28.433241 -0.03086509 2.783334
23.62965 -28.538124 -0.00240983 2.8611109
23.620388 -28.578421 2.1252868 1.5555561
23.664604 -28.676699 2.1609092 1.333333
23.636021 -28.525352 2.4629636 1
23.629089 -28.631796 2.5719233 1.985714
23.628578 -28.63496 3.0203896 1.698413
23.585285 -28.3813 -1.219655 7.8000002
23.736151 -28.697569 -1.2123494 7.25
23.598488 -28.419678 -0.96516639 4.125
23.621807 -28.510921 -0.85739368 4.0809522
23.640215 -28.494085 -0.37910205 2.958333
23.714237 -28.611624 -0.18207641 0
23.617619 -28.503103 -0.058866341 4.8293648
23.65699 -28.594879 0.12884532 1
23.559977 -28.44146 0.39550602 9.083333
23.640654 -28.634506 2.0957198 1.625
23.712448 -28.720881 2.3096924 0
23.630829 -28.577105 2.5109701 1.75
23.668427 -28.698772 2.5516632 1.375
23.636307 -28.661423 2.9783926 1.746032
23.586578 -28.389029 -1.1838379 6.636364
23.59193 -28.428057 -0.9285171 4.7666659
23.619606 -28.519321 -0.82040977 3.2936511
23.653601 -28.530563 -0.33253837 2.916667
23.609842 -28.488478 -0.02762593 3.8476191
23.65559 -28.591051 0.16420786 0.33333299
23.631687 -28.58045 0.31920385 1.666667
23.640488 -28.633379 2.1362154 1.619048
23.619106 -28.584663 2.5499771 1.666667
23.661699 -28.70233 2.5924122 1
23.621058 -28.566538 2.8130951 1
23.632145 -28.663094 3.0201509 1.746032
23.600735 -28.357359 -1.1988521 7.666667
23.80312 -28.663877 -1.1966836 6.6999998
23.595795 -28.419418 -0.93602967 4.5333328
23.61779 -28.516584 -0.82627022 4.3611112
23.647285 -28.522549 -0.34071076 2.541667
23.612652 -28.499481 -0.03014775 4.1555562
23.680653 -28.600426 0.083348557 0
23.628736 -28.574762 0.31135643 2.666667
23.620613 -28.634884 2.124402 1.65873
23.6236 -28.579782 2.5447719 1.825
23.653746 -28.693127 2.5812476 1.166667
23.625107 -28.562067 2.8080909 1
23.632595 -28.66444 3.0150921 1.655555
23.594894 -28.398548 -1.2031939 6.5
23.592278 -28.420753 -0.95285255 4.7333341
23.618607 -28.512205 -0.84464926 3.099206
23.633091 -28.495644 -0.36592764 2.416667
23.610132 -28.478249 -0.05259876 4.2523808
23.660618 -28.595234 0.14367808 0
23.631248 -28.572142 0.29474169 2
23.63168 -28.620497 2.1086929 1.722222
23.617952 -28.567425 2.524096 1.666667
23.655876 -28.693041 2.5665481 1.166667
23.622904 -28.555428 2.7899888 1
23.628429 -28.655693 2.9959066 1.753968
23.561886 -28.428329 -1.2146943 7.5
23.879147 -28.720882 -1.2200066 10
23.605778 -28.428778 -0.89106822 4.8309522
23.640503 -28.543447 -0.85651124 2.166667
23.647282 -28.532356 -0.37493646 2.875
23.616398 -28.505106 -0.064733729 4.1111112
23.593628 -28.598934 0.35718143 2.5
23.65324 -28.642347 2.1014473 1.571429
23.622223 -28.602118 2.5139821 1.928571
23.687855 -28.71677 2.5646789 1
23.617853 -28.586094 2.7749321 1.5
23.637362 -28.679626 2.9852881 1.662698
23.580727 -28.401024 -1.1946278 6.909091
23.59713 -28.447453 -0.85599041 4.8666668
23.625931 -28.542967 -0.74625063 1.583333
23.635529 -28.538492 -0.34470212 3
23.610727 -28.487398 -0.04088169 3.8095241
23.705275 -28.617287 0.16386276 1
23.63829 -28.588156 0.30965883 0
23.64571 -28.640697 2.1287038 1.571429
23.621487 -28.605295 2.5446885 1.928571
23.669662 -28.712753 2.6760399 1
23.614689 -28.585102 2.893934 1.5
23.639021 -28.683325 3.0173681 1.501587
23.594788 -28.407753 -1.1975539 6.9000001
23.60157 -28.445515 -0.86172587 4.1904759
23.62921 -28.538776 -0.67183918 1.5
23.631458 -28.372149 -0.47896487 1.25
23.619246 -28.523478 -0.43592304 5.023809
23.61639 -28.496881 -0.04406929 3.8690481
23.650517 -28.641375 2.1222804 1.523809
23.63221 -28.622599 2.5443928 1.708333
23.620781 -28.598721 2.8912437 1.875
23.645256 -28.694653 3.0141151 1.4404759
23.54458 -28.356783 -1.2510791 10.5
23.602695 -28.480745 -1.2135425 6.1428571
23.619762 -28.482525 -0.88913769 4.2380948
23.626976 -28.431498 -0.42026967 2.866667
23.68684 -28.594706 -0.3700797 1.111111
23.644165 -28.403036 -0.18669134 0
23.632736 -28.539413 -0.06932044 4.9126978
23.637211 -28.549046 2.0555594 1.333333
23.650789 -28.669996 2.0886455 1.607143
23.656595 -28.658308 2.5198889 1.598214
23.637383 -28.645916 2.9569952 1.766667
23.675976 -28.750443 3.0877821 1.166667
23.836384 -28.700661 -1.2563227 13
23.594301 -28.331879 -1.1188234 6
23.621716 -28.500305 -0.98439384 3.761905
23.634132 -28.459618 -0.51193786 3.1071429
23.720673 -28.603352 -0.30503544 0
23.621532 -28.467976 -0.18989524 4
23.702356 -28.605383 -0.064645924 0.5
23.611927 -28.455107 0.12566558 0.5
23.57584 -28.56031 0.30882195 7.659524
23.639517 -28.643143 2.060019 2.175
23.668793 -28.690695 2.1658406 1
23.635624 -28.558634 2.3836393 1.75
23.63801 -28.651793 2.4064064 2.25
23.655361 -28.534168 2.8295164 1
23.639837 -28.658453 2.8529816 1.6904759
23.790749 -28.605137 -1.2470956 13.666667
23.592587 -28.449314 -0.96177632 4.1726189
23.600807 -28.41708 -0.48686379 3.8611109
23.667011 -28.564346 -0.28049237 0
23.592373 -28.418858 -0.1667809 3.2777779
23.630249 -28.542734 -0.12889685 1.833333
23.593445 -28.577175 2.0741487 2.3499999
23.64138 -28.650417 2.1069281 1.25
23.611382 -28.502142 2.4074492 1.5
23.605793 -28.598986 2.4281123 2.25
23.6367 -28.490986 2.85919 1
23.610149 -28.617266 2.8785799 1.714286
23.63105 -28.508335 3.2298963 1
23.601559 -28.491783 -1.0582571 6.0714288
23.599388 -28.476448 -0.65876967 5.2142859
23.601868 -28.436649 -0.26976818 3.3809519
23.658363 -28.573853 -0.22641964 0.77777803
23.632929 -28.393427 0.041243721 0
23.613762 -28.525612 0.23671816 4.799603
23.675194 -28.682198 2.0934234 1
23.620716 -28.526726 2.296874 1.5
23.632391 -28.636532 2.3272092 2
23.624847 -28.63039 2.7641747 1.65873
23.621487 -28.614817 3.215306 1.5333329
23.920429 -28.732733 -1.268047 14
23.657978 -28.572632 -1.1425855 7.3055558
23.622416 -28.484001 -0.7645846 4.9285722
23.624765 -28.497936 -0.36022067 4.416667
23.672646 -28.598608 -0.16885249 0
23.622917 -28.448969 0.025222911 1.6
23.649956 -28.573519 0.14195432 2.920635
23.624092 -28.607325 2.1943853 2.3
23.647739 -28.685453 2.2207754 1.25
23.623652 -28.574396 2.4475131 1.5
23.636259 -28.656727 2.6485772 1.916667
23.639912 -28.666836 3.1056621 1.520833
23.896738 -28.685356 -1.2559524 8.666667
23.603506 -28.363384 -1.0960722 5.1111112
23.631481 -28.565866 -1.11611 5.416667
23.627281 -28.357498 -0.85425842 2
23.619137 -28.481894 -0.65679866 2.761905
23.609533 -28.507423 -0.33096176 3.4186511
23.608299 -28.456636 0.13327996 2.966666
23.643408 -28.593948 0.17290728 1.4
23.621321 -28.626768 2.2208376 2
23.623777 -28.574234 2.6468213 1.566667
23.63311 -28.678642 2.6735098 1.7
23.636734 -28.667782 3.1246948 1.392857
23.837921 -28.567854 -1.2010535 15
23.593403 -28.451916 -0.57387483 2.845238
23.570324 -28.44367 -0.25687382 3.8095241
23.635853 -28.571856 -0.056549098 0
23.578388 -28.387899 0.20777413 1
23.588654 -28.532072 0.24839154 3.1111109
23.599079 -28.555267 2.3045864 2
23.617702 -28.639395 2.4174232 1.5
23.618916 -28.500261 2.64799 1.333333
23.609089 -28.610687 2.7590852 2
23.616028 -28.620213 3.2168229 1.547619
23.601936 -28.630619 -1.2208658 8.333333
23.60656 -28.439304 -0.87633967 3.666667
23.601273 -28.462841 -0.54875028 5.15873
23.672707 -28.583126 -0.35088623 0.66666698
23.61574 -28.40745 -0.16412872 1.25
23.623871 -28.543621 -0.045322839 3.937037
23.613289 -28.56077 2.077826 2
23.646965 -28.673096 2.0298395 1.25
23.603189 -28.546009 2.2431221 1
23.621822 -28.645706 2.4477935 1.9746031
23.617651 -28.646212 2.8921037 1.619048
23.634884 -28.591568 3.163065 1.166667
23.676125 -28.746206 3.2177954 1
23.622786 -28.512224 -1.1262387 9.4365072
23.608223 -28.483036 -0.81259298 5.1527781
23.617687 -28.446621 -0.34094161 2.9444449
23.674358 -28.595322 -0.29260752 1.388889
23.619667 -28.427324 -0.02622837 0
23.625782 -28.544786 0.089474708 3.916667
23.627012 -28.677935 2.0163503 2
23.614876 -28.55286 2.0658147 1.25
23.635082 -28.67635 2.1916759 1.694445
23.626951 -28.664122 2.6280093 1.732143
23.615726 -28.649111 2.8927341 1.666667
23.620956 -28.563889 -1.1585201 9.75
23.59623 -28.491798 -0.93909216 5.9404759
23.595818 -28.504852 -0.45056435 4.8730159
23.665386 -28.619877 -0.24870327 0
23.597244 -28.455341 -0.06470114 0.875
23.620275 -28.584854 -0.022348249 4.708333
23.610382 -28.578039 2.1204412 1.75
23.642639 -28.689772 2.0753162 1.833333
23.632614 -28.661327 2.50476 1.75
23.616087 -28.660154 2.7695098 1.833333
23.586699 -28.489027 -1.1070261 9.1583338
23.662607 -28.593185 -0.9071514 1
23.596031 -28.475439 -0.78613919 5.0555549
23.609158 -28.557018 -0.67627382 4.5
23.595009 -28.430164 -0.47661796 1
23.618961 -28.535927 -0.27771714 3.363095
23.604124 -28.538513 0.12539974 4.5555549
23.629581 -28.621243 0.2360985 1
23.63105 -28.635595 2.2439089 1.619048
23.682625 -28.742878 2.3813195 1
23.625818 -28.591156 2.6764133 1.5
23.639809 -28.697273 2.7124929 1.833333
23.634045 -28.68214 2.9825175 1.5
23.572021 -28.395422 -1.0834594 6.8000002
23.611122 -28.553751 -1.028573 4.9000001
23.602587 -28.514204 -0.63599598 5.0714288
23.605465 -28.509703 -0.15295528 4.3888888
23.669558 -28.627167 -0.11052255 0.66666698
23.616711 -28.458321 0.23556565 0.25
23.614128 -28.569693 0.26955396 3.666667
23.695049 -28.725716 2.0748906 1
23.60907 -28.603832 2.2734904 2
23.632141 -28.677067 2.3901825 1.888889
23.674904 -28.532883 2.7256541 1
23.634523 -28.672993 2.8391838 1.6904759
23.630627 -28.678127 3.1169012 1.6
23.62159 -28.463484 -1.0291561 5.0211639
23.607822 -28.486374 -0.69791186 5.3666668
23.655432 -28.59737 -0.58026767 1.05
23.650112 -28.414598 -0.31496704 0.33333299
23.63257 -28.559925 -0.19086824 3.261905
23.623669 -28.547077 0.20552649 2.7142861
23.713707 -28.747555 2.0153053 1
23.651558 -28.569141 2.4717333 1
23.636024 -28.672926 2.3176291 2.1142859
23.659122 -28.572313 2.7469122 1
23.629572 -28.671061 2.7605054 2.166667
23.635651 -28.707462 3.0484514 1.8
23.603928 -28.393106 -0.99179286 4.666667
23.60952 -28.524042 -1.027715 5.5
23.605745 -28.51162 -0.62588894 4.5515881
23.651245 -28.368744 -0.34634757 0
23.599714 -28.470734 -0.15497988 3.947619
23.64044 -28.595493 -0.11163718 1.388889
23.615641 -28.430326 0.15604737 0
23.624058 -28.562 0.2792868 3.7857139
23.616966 -28.555599 2.01384 1.5
23.657818 -28.696562 2.0668836 1
23.631649 -28.674959 2.052283 1
23.638695 -28.527493 2.2749591 1
23.606245 -28.589357 2.1932368 2
23.645485 -28.661093 2.491154 1.291667
23.61388 -28.653994 2.3896027 2.4444439
23.627253 -28.659042 2.8453665 1.714286
23.623028 -28.632189 3.114233 1.6
23.603775 -28.419373 -0.98632097 5.333333
23.622795 -28.543251 -1.0250144 2.5
23.597031 -28.413412 -0.82545072 2.5
23.615067 -28.50757 -0.63085729 4.4507942
23.657423 -28.374815 -0.10425381 0
23.604221 -28.504835 -0.14800467 4.791667
23.651632 -28.607391 0.050755609 0
23.645802 -28.414707 0.31329346 0
23.593998 -28.456818 0.23822813 1
23.621033 -28.580479 0.28042704 2.958333
23.632246 -28.619747 2.0336528 1.25
23.622486 -28.549236 2.3607199 1.333333
23.608658 -28.628815 2.2020414 3
23.636925 -28.681311 2.4028609 1.611111
23.623173 -28.654503 2.8402066 1.714286
23.62788 -28.656872 3.1216478 1.571429
23.605322 -28.532419 -1.2304735 9.5
23.605629 -28.432413 -0.93822646 5.1222219
23.645241 -28.552883 -0.97887212 0.75
23.598154 -28.417786 -0.6998263 2.666667
23.608898 -28.514675 -0.5862515 6
23.647072 -28.37958 -0.14253993 0
23.611784 -28.510498 -0.10372503 3.821429
23.685093 -28.618046 0.099049397 1
23.596615 -28.463614 0.28240949 2.458333
23.61772 -28.601192 0.32745248 4.0500002
23.774708 -28.747492 0.96799672 1.5
23.648949 -28.645422 2.001164 1.333333
23.609154 -28.60017 2.4119179 1.916667
23.663317 -28.696558 2.4582462 1.555555
23.624653 -28.657623 2.8843269 1.607143
23.625248 -28.671249 3.1675529 1.571429
23.647844 -28.766911 -1.2527921 11.333333
23.632095 -28.548206 -1.086547 3.833333
23.597042 -28.466011 -0.70809293 5.0555549
23.622902 -28.552612 -0.59546793 3.55
23.612667 -28.53443 -0.19712695 3.8
23.606758 -28.515398 0.19999155 4.104167
23.654671 -28.622322 0.3226231 0
23.648136 -28.412186 0.41634235 0
23.654728 -28.693344 2.0108759 1.333333
23.622826 -28.608562 2.32551 1.766667
23.613239 -28.662455 2.2495537 2.25
23.644449 -28.708794 2.451472 1.5
23.623875 -28.575092 2.6753123 1
23.632244 -28.67971 2.8012702 1.6904759
23.632561 -28.6926 3.0846918 1.571429
23.653015 -28.566948 -1.085997 9.2222223
23.601532 -28.484976 -0.78913516 5.242857
23.625648 -28.540983 -0.60399586 1.5
23.60778 -28.397217 -0.41235626 1.75
23.613323 -28.519165 -0.28646791 4.6944442
23.609278 -28.50757 0.11511062 4.1428571
23.68478 -28.615379 0.24385162 2
23.64819 -28.598219 1.990925 1
23.639404 -28.500702 2.22159 1
23.621172 -28.63941 2.2586446 2.0888889
23.675997 -28.708126 2.2998478 1
23.631378 -28.673557 2.4509449 1.5
23.6124 -28.551788 2.5868917 1
23.604082 -28.580612 2.5926561 2
23.648417 -28.665209 2.7290905 1
23.611929 -28.654982 2.7109056 2.291667
23.627167 -28.663273 2.999121 1.6
23.609879 -28.650738 2.9873693 2
23.600887 -28.500671 -1.1267085 6.125
23.585598 -28.416563 -0.74811882 4.5555549
23.603844 -28.518105 -0.71016616 3.4444449
23.619442 -28.349003 -0.44390541 1
23.603655 -28.487547 -0.23261888 3.083333
23.642056 -28.368101 0.21923043 0
23.590889 -28.47028 0.16587101 4.25
23.633682 -28.583933 0.29183298 0.66666698
23.726646 -28.753008 0.85525209 2
23.673401 -28.678488 2.0038908 1
23.617033 -28.506462 2.2827089 1.111111
23.61364 -28.628073 2.2308152 2.25
23.659248 -28.689171 2.4440339 1
23.627045 -28.651251 2.3315024 1.777778
23.653265 -28.481384 2.6496394 1
23.627766 -28.616333 2.7731566 1.25
23.607735 -28.635269 2.7707248 2
23.625294 -28.59984 3.0468056 1.571429
23.60121 -28.620701 3.0424607 2
23.589893 -28.487329 -1.1206779 6.7333341
23.923603 -28.52771 -1.1965977 11
23.657204 -28.55991 -1.0120903 0
23.589703 -28.412539 -0.73883247 3.866667
23.606106 -28.517683 -0.70047885 4.1309519
23.645889 -28.350151 -0.4314338 0
23.609802 -28.517582 -0.21276404 4
23.587156 -28.466986 0.17268263 3.5999999
23.621479 -28.579033 0.21449898 1.416667
23.689672 -28.699478 2.019666 1
23.613749 -28.53672 2.3840625 1
23.609417 -28.627977 2.2333643 2.25
23.639004 -28.673473 2.4350567 1.25
23.621367 -28.659611 2.3358231 1.833333
23.631701 -28.62513 2.7809458 1.1
23.603661 -28.648869 2.7764757 2.583333
23.614845 -28.632893 3.055398 1.6
23.600998 -28.652231 3.055028 2
23.637627 -28.743248 -1.2450187 11.333333
23.618805 -28.529858 -1.0785885 4.0250001
23.587395 -28.440178 -0.70234275 4.666667
23.61676 -28.539154 -0.66527349 2.833333
23.604891 -28.521475 -0.18379539 3.6190469
23.643446 -28.3929 0.26516986 0
23.590799 -28.489277 0.20907283 5
23.657368 -28.610613 0.25882289 0.75
23.683905 -28.703932 2.0541496 1
23.621002 -28.601057 2.3533356 1.444445
23.60796 -28.643753 2.2729571 2.5
23.620796 -28.665733 2.5514882 1.666667
23.608059 -28.654037 2.4534905 2.5
23.617823 -28.653904 2.8214259 1.583333
23.602997 -28.656771 2.7242391 3
23.614264 -28.6469 3.0981529 1.571429
23.659863 -28.56262 -1.0813198 3.2
23.593342 -28.479513 -0.70251477 6.083333
23.626692 -28.556067 -0.59131587 2.375
23.594505 -28.432478 -0.39319468 2
23.616005 -28.531021 -0.19358385 3.8777781
23.646465 -28.38991 0.085750639 0
23.609425 -28.510082 0.20464092 3.803571
23.632193 -28.605713 0.32226861 0
23.681576 -28.706268 2.0420966 0.5
23.626036 -28.582592 2.3370023 1.277778
23.619337 -28.655611 2.2685208 2.25
23.64027 -28.694374 2.4665418 1.375
23.628155 -28.555387 2.6907883 1
23.627682 -28.670523 2.8189707 1.75
23.633205 -28.680752 3.105742 1.571429
23.620701 -28.576256 -1.1117356 6
23.768009 -28.672644 -1.2466915 13
23.65379 -28.327181 -0.71149695 1
23.594234 -28.460779 -0.82824767 6.3611112
23.628508 -28.526539 -0.72268045 1.5
23.596359 -28.408949 -0.52127624 2.5
23.623247 -28.505404 -0.3242434 3.9146819
23.605328 -28.491209 0.073477209 3.8125
23.666288 -28.590012 2.2056139 1
23.617256 -28.599752 2.2787368 2.1833329
23.661226 -28.690922 2.4107673 1
23.636509 -28.510124 2.618283 1
23.610783 -28.578083 2.5379179 2.25
23.68302 -28.709223 2.7882502 1
23.631401 -28.648108 2.6576974 1.65
23.642262 -28.598484 2.9238908 1
23.621014 -28.652727 2.9309645 1.75
23.607508 -28.504639 -1.1308334 6.3666668
23.676884 -28.578981 -1.0239234 1
23.603971 -28.433521 -0.74864805 4.2666659
23.617447 -28.532768 -0.7146526 4.666667
23.65786 -28.355232 -0.44769338 0
23.625343 -28.526043 -0.2317881 3.5892861
23.609343 -28.497465 0.16019082 4.1714292
23.671906 -28.614765 0.20450526 0.75
23.672777 -28.702478 1.9714231 1
23.630606 -28.580217 2.2710223 1.166667
23.623005 -28.649897 2.2880952 2.2333331
23.649075 -28.69912 2.3992074 1.5
23.620949 -28.665104 2.4675467 2
23.631107 -28.554167 2.6207335 1
23.63747 -28.672121 2.7473662 1.607143
23.611879 -28.640411 2.6373413 3
23.631472 -28.678503 3.0235965 1.833333
23.646912 -28.540993 -1.2151461 5
23.586767 -28.458645 -1.0784485 6.7222228
23.633888 -28.537373 -0.97385216 0.75
23.641464 -28.341284 -0.47014758 0
23.594704 -28.39411 -0.69679976 2.625
23.605223 -28.498274 -0.58475673 4.4380951
23.610794 -28.521557 -0.17917451 4.333333
23.645422 -28.368576 0.019785279 0
23.582783 -28.487402 0.20627534 4.2222219
23.789526 -28.69595 0.94508779 1
23.615288 -28.63401 2.3233323 1.741071
23.597513 -28.616171 2.5789027 2
23.63818 -28.702824 2.6167827 1
23.645712 -28.562151 -1.1346169 5
23.592373 -28.406527 -1.0188873 5.25
23.600128 -28.502792 -0.91065073 5.3769841
23.658455 -28.3682 -0.30882242 0
23.60549 -28.511621 -0.43058822 4.0476189
23.653988 -28.381371 -0.14627558 0
23.592941 -28.476585 -0.045337629 4.5749998
23.650152 -28.604258 -0.0063475501 0.83333302
23.619638 -28.624926 2.1098838 2.0285709
23.700211 -28.724901 2.2455223 0
23.661728 -28.498777 2.4430482 1
23.612501 -28.610374 2.4511461 2
23.645327 -28.699417 2.5715289 1.5
23.66721 -28.5117 2.7159908 1
23.6208 -28.577049 2.7128761 1.333333
23.633486 -28.684174 2.7426956 2
23.635283 -28.602724 -1.260013 19
23.571968 -28.397507 -0.68054861 4.3916669
23.593393 -28.508001 -0.56493157 3.333333
23.578812 -28.360472 -0.37221196 1
23.589909 -28.484104 -0.25318992 2.8392861
23.58802 -28.47711 0.14334674 2.9940481
23.590084 -28.586597 2.3307514 2.291667
23.599873 -28.54652 2.5005832 1.6
23.939074 -28.713581 -1.2501585 15.75
23.715425 -28.687227 -1.2475137 18
23.594082 -28.604059 -1.1076409 6.9722228
23.600735 -28.400993 -0.8540706 3
23.593563 -28.522804 -0.65078747 4.7777772
23.606934 -28.518726 -0.2496819 2.696429
23.664051 -28.642731 -0.12434416 0
23.589371 -28.505522 0.14614205 2.7777779
23.619173 -28.598906 0.17891704 2.844444
23.615444 -28.602299 2.2626545 1.875
23.645702 -28.720236 2.3082669 1.3
23.622726 -28.5714 2.5238469 1
23.628029 -28.686468 2.5601277 2
23.93041 -28.637741 -1.186671 15
23.605385 -28.547955 -0.71732217 4.4642849
23.640848 -28.655794 -0.52284628 1.5
23.603168 -28.537161 -0.40143743 1.5
23.617952 -28.632849 -0.29159534 3.821429
23.686579 -28.47718 0.067071833 0
23.618629 -28.615301 0.10146028 3.238095
23.641176 -28.621328 2.0849094 1
23.632408 -28.735338 2.2880802 2.25
23.646267 -28.73299 2.4688358 1.666667
23.792713 -28.671928 -1.1827087 7.75
23.614025 -28.674568 -1.2529047 18
23.701004 -28.654282 -0.93697137 11
23.609369 -28.582449 -0.79807979 4.3777781
23.665962 -28.641354 -0.61603349 0
23.65667 -28.411253 -0.36920932 0
23.596638 -28.501442 -0.42285949 3
23.625309 -28.625385 -0.38086909 1.9
23.642925 -28.419708 -0.20559117 0
23.607792 -28.455227 -0.11608247 0
23.676544 -28.564922 0.0055703102 0
23.608522 -28.579027 0.0044380301 3.6646831
23.658077 -28.456421 0.29308158 0
23.816862 -28.387569 0.95808053 5
23.623951 -28.584536 1.9960219 1
23.61842 -28.699402 2.2052295 1.952381
23.764141 -28.574579 -1.2441086 17
23.611631 -28.378046 -0.97518671 4.916667
23.623577 -28.495995 -0.93798208 4.6555562
23.657242 -28.329691 -0.50817657 1
23.607521 -28.469078 -0.54599667 5.1428571
23.669197 -28.340179 -0.26340264 0
23.617256 -28.473648 -0.14541371 3.1904759
23.675016 -28.590481 0.054378182 0
23.657579 -28.451853 2.1776514 1
23.691101 -28.686924 2.2584641 1
23.931751 -28.728636 -1.259636 15.8
23.622707 -28.628744 -1.1833699 11.5
23.587994 -28.458218 -0.99259478 4.666667
23.600052 -28.561874 -0.79993218 4.25
23.601599 -28.538876 -0.40717548 3.6875
23.681416 -28.415529 -0.041222319 0
23.602863 -28.521442 -0.01369986 2.5916669
23.637192 -28.645203 0.10535784 1.166667
23.826672 -28.373848 0.61358911 5
23.860279 -28.360111 0.86424583 2.833333
23.610634 -28.627977 2.1623342 1.981482
23.63509 -28.633894 2.3470979 1
23.656151 -28.535225 -1.2105993 7
23.578741 -28.463476 -1.0650299 7.1428571
23.596437 -28.458645 -0.58604598 5.2634921
23.616856 -28.567646 -0.55394691 2.2222221
23.593487 -28.425163 -0.27708101 0
23.602036 -28.521465 -0.16854061 3.4875
23.596405 -28.546764 0.23638791 3.883333
23.836052 -28.332283 0.60507089 2.5
23.823902 -28.34786 0.85702419 5
23.617153 -28.670361 2.0850348 1.8
23.649464 -28.513124 2.2238803 1
23.609673 -28.628387 2.3327916 1.958333
23.623287 -28.644251 2.6086257 1.714286
23.74918 -28.590672 -1.1939237 22
23.590822 -28.50177 -0.96019316 4.3499999
23.637581 -28.352434 -0.60299808 1.333333
23.588184 -28.477459 -0.56450742 5.7380962
23.63833 -28.364519 -0.27782798 0
23.595867 -28.48411 -0.16299501 3.25
23.658195 -28.603102 -0.12813041 0
23.656582 -28.372398 0.04664892 0
23.612003 -28.44429 0.22593945 2
23.698784 -28.625401 0.1209062 0
23.6084 -28.552738 0.2565583 5.523809
23.875942 -28.338747 0.62325138 3
23.840153 -28.328026 0.9497878 2.916667
23.632053 -28.60084 2.3453507 2.053571
23.654694 -28.707382 2.471211 1.333333
23.728567 -28.495522 2.6105103 0
23.668158 -28.539652 2.6043322 1
23.646599 -28.688978 2.6421416 2
23.81879 -28.427238 -1.1173286 10
23.57984 -28.399044 -1.1004018 7.007936
23.585762 -28.423191 -0.7700088 4.8452382
23.621891 -28.526274 -0.66146737 0
23.651989 -28.32996 -0.23343612 0
23.580502 -28.403568 -0.45319802 6
23.592064 -28.479206 -0.35155767 4.1111112
23.638565 -28.353134 0.095420018 0
23.600552 -28.47369 0.04776834 2.571429
23.701149 -28.737476 0.85813785 2
23.660021 -28.451427 2.2879844 2
23.603912 -28.5077 2.02985 2
23.617373 -28.594641 2.2313416 1.845238
23.682644 -28.456434 2.5638347 1.25
23.627831 -28.593513 2.5877686 1.571429
23.673851 -28.476753 2.8394217 1
23.617352 -28.619152 2.8634539 1.5
23.624302 -28.438526 -0.91162229 2.458333
23.604671 -28.405403 -0.51353151 4.674603
23.609619 -28.39764 -0.11199173 2.5892861
23.636963 -28.509808 0.0024659799 0
23.608967 -28.356182 0.27960205 1.777778
23.61541 -28.546499 2.0877736 1.8125
23.621811 -28.492405 2.4257736 1.714286
23.645824 -28.643101 2.4809928 0.75
23.637375 -28.463053 2.691992 1
23.614874 -28.598682 2.7292988 1.8
23.785082 -28.522587 -1.1522204 8
23.577965 -28.36306 -1.0056792 7.2870369
23.616184 -28.483866 -0.81189001 1
23.587641 -28.357151 -0.60079741 7.6999998
23.593174 -28.461535 -0.5720247 2.583333
23.603512 -28.425879 -0.17663129 3.071429
23.604877 -28.433432 0.22962238 2.428571
23.654594 -28.419052 2.1440294 1
23.633892 -28.556787 2.3558378 1.75
23.648897 -28.53508 2.8003671 1.380952
23.685337 -28.667639 2.9447353 1
23.64024 -28.525328 3.070586 1.6
23.651043 -28.648245 3.1138394 1
23.646252 -28.437824 -1.1470133 8
23.617508 -28.633972 -1.1770977 4.333333
23.617371 -28.496344 -0.8843658 5.333333
23.615112 -28.59499 -0.8597362 5.3249998
23.725533 -28.441811 -0.3315239 0
23.619949 -28.552324 -0.46398145 4.6547618
23.682642 -28.465286 -0.080570638 0
23.619095 -28.584293 -0.051391091 3.071429
23.653873 -28.693565 0.057975259 0
23.861547 -28.426474 0.74539292 1.208333
23.845009 -28.455776 0.83499181 2
23.69569 -28.510078 1.1673409 1
23.704906 -28.515444 1.5072349 0
23.587582 -28.569298 1.928315 1.083333
23.629578 -28.716223 2.152328 1.5
23.623844 -28.686911 2.4988256 1.625
23.629341 -28.696886 2.7767444 1.285714
23.829575 -28.666376 -1.231377 18.6
23.612675 -28.370741 -0.93930733 5.3888888
23.577976 -28.452785 -0.99744612 9.25
23.623055 -28.545334 -0.89681804 0.66666698
23.589785 -28.495802 -0.90538889 5
23.614126 -28.476851 -0.49989209 1.375
23.579023 -28.469891 -0.49921778 10.333334
23.621201 -28.464478 -0.092138194 1.404762
23.589809 -28.516142 -0.16007617 4.333333
23.6651 -28.618238 0.1114871 0
23.608057 -28.472216 0.31985113 5.25
23.637203 -28.603579 0.27196592 0
23.801971 -28.35302 0.71283853 1
23.747971 -28.399538 0.88865286 2
23.639473 -28.428303 1.1379837 1
23.671429 -28.450745 1.6573753 0.5
