# .PCD v0.7 - Point Cloud Data file format
VERSION 0.7
FIELDS x y z intensity
SIZE 4 4 4 4
TYPE F F F F
COUNT 1 1 1 1
WIDTH 1379
HEIGHT 1
VIEWPOINT 0 0 0 1 0 0 0
POINTS 1379
DATA ascii
-24.618902 1.4839385 3.4327865 14
-24.591469 1.4063313 3.4288709 12
-24.632326 1.4248055 2.7611301 4
-24.549019 1.3449732 2.7520673 2
-24.644114 1.4295671 3.1952884 4
-24.568909 1.3502277 3.18572 2
-24.54878 1.3534145 3.6204619 3
-24.643555 1.4336957 3.6343608 3
-24.649269 1.4670755 2.4583108 2
-24.653509 1.3919863 2.457994 2
-24.557138 1.3434618 2.8750243 13
-24.631231 1.4206372 3.3156438 3.5
-24.637581 1.3817304 3.753756 2.333333
-24.650219 1.4646292 2.3577611 2
-24.643219 1.4537208 2.783515 4.333333
-24.626286 1.4468539 3.2103796 7.25
-24.635509 1.441658 3.646709 2.333333
-24.615517 1.4664118 3.0474253 3
-24.48188 1.3482714 3.0374966 4
-24.620178 1.4942783 3.4742739 10.5
-24.444464 1.300374 3.460258 33
-24.612904 1.4031465 2.3592112 1.333333
-24.592167 1.4624057 2.7768378 2.5
-24.516258 1.3475313 2.7726455 2
-24.592159 1.47751 3.1987419 2
-24.51244 1.3625081 3.1926003 2
-24.432562 1.2849718 3.1850309 4
-24.631639 1.4992063 3.6296189 2
-24.548191 1.3838329 3.6213982 3
-24.444809 1.3050188 3.6088281 39
-24.549921 1.5049853 2.5944808 1
-24.503881 1.3916796 2.5943091 2.5
-24.58462 1.527149 3.0196435 1
-24.516888 1.4125143 3.0158734 3
-24.59177 1.5518777 3.4430177 1
-24.524229 1.4371947 3.4379604 2.5
-24.506538 1.3852373 2.6604609 4
-24.523577 1.4344995 3.0799174 3
-24.382399 1.3191861 3.0642436 5
-24.558493 1.4889629 3.5087097 3
-24.423532 1.3379753 3.4920635 3
-24.641968 1.4414898 3.016011 2.5
-24.552975 1.3229916 2.8038661 3
-24.648046 1.4550438 2.5111351 1.666667
-24.635496 1.461325 2.917444 2
-24.480942 1.3107951 2.8995771 26
-24.535532 1.356384 3.3176415 18.5
-24.645891 1.4405096 3.7456975 2
-24.677319 1.3119583 2.542213 3
-24.606459 1.5198731 2.5258367 1
-24.49482 1.3467779 2.7213395 12.5
-24.621737 1.5395815 2.9326239 1
-24.554218 1.3945972 2.9295881 3
-24.526009 1.3771317 3.3365226 3.5
-24.605507 1.4008194 3.7579386 2
-24.567799 1.3443974 2.4218521 1
-24.524551 1.4124688 2.4138894 4
-24.355825 1.2854655 2.8015282 20
-24.525316 1.3998051 2.8164062 3
-24.363846 1.3122064 3.2008817 29
-24.58676 1.5355945 3.2210269 0
-24.52281 1.3909403 3.219166 2
-24.408648 1.3332381 3.6073673 3
-24.527958 1.4450881 3.6207147 2.5
-24.650166 1.4427216 2.8097827 2.333333
-24.487301 1.2941514 2.7952158 6
-24.649473 1.4555365 3.2073598 2
-24.497646 1.3244435 3.5890772 46
-24.593454 1.2813994 2.6731935 0
-24.652159 1.4356917 3.0710196 3
-24.657278 1.4494652 3.4724689 6.5
-24.520866 1.3042171 3.4553974 43
-24.625734 1.3537861 2.6708214 2
-24.622791 1.4221797 3.1238856 8.75
-24.657417 1.4468029 2.6780033 2
-24.648214 1.4346557 3.0646973 2.666667
-24.632936 1.4921002 3.0395675 2
-24.51519 1.3520478 3.0241475 2
-24.651964 1.5305929 3.428009 1.5
-24.521118 1.3566 3.4082949 2
-24.616549 1.4196608 3.0017147 7.666667
-24.6577 1.4148396 3.386518 2.666667
-24.660709 1.4089785 2.5924537 2.75
-24.467514 1.2948571 2.9421394 14
-24.621593 1.4675151 2.9664085 3
-24.536278 1.3463073 3.1399317 2
-24.63529 1.4649464 3.3451786 3
-24.58164 1.4050028 2.725234 2.416667
-24.574642 1.4096284 3.2840638 2.666667
-24.558334 1.3945066 3.6602664 6
-24.63335 1.4886893 2.8565702 6
-24.460602 1.3174254 2.8386631 21
-24.648598 1.5026304 3.2275438 2
-24.474316 1.3313001 3.2061 19
-24.568222 1.4641432 2.5870187 2.5
-24.608852 1.3414129 2.5954499 2
-24.574986 1.4781221 2.9522183 2.5
-24.461378 1.3443996 2.9400587 13.5
-24.635197 1.5069969 2.5536127 1
-24.666584 1.353606 2.5627615 1.5
-24.6021 1.3957078 2.9142411 3
-24.483974 1.3247606 2.9001513 3
-24.647964 1.3799331 2.6280673 3.333333
-24.58643 1.3866117 2.9764204 9.666667
-24.529654 1.3352722 2.8098969 20
-25.12648 1.3463132 3.1952469 0
-24.833836 1.5678992 3.3237197 1.5
-24.515121 1.3342013 2.8829319 14
-24.560154 1.3599329 2.5864396 3
-24.581656 1.4455581 2.9278202 2.791667
-24.564829 1.4327869 3.436368 6
-24.630531 1.5073029 2.6102154 1
-24.599815 1.3883553 2.6044641 5.5
-24.625004 1.5059819 3.1134291 1
-24.563486 1.3846693 3.1023707 11.333333
-24.608521 1.4171242 3.4462254 2.5
-24.582121 1.322991 2.6612372 7
-24.578106 1.3070037 2.9907389 15
-24.668839 1.3246336 2.7892745 21
-24.88678 1.5580556 3.49227 2
-24.566721 1.3291655 2.8016229 14
-24.625809 1.3502866 2.4719074 3
-24.60675 1.4982718 2.634768 1.5
-24.593779 1.4146777 2.6304808 4
-24.566938 1.5622733 2.4262173 0
-24.463312 1.4194381 2.7291973 7.25
-24.646135 1.4208447 2.5771148 3.5999999
-24.655113 1.4231429 2.3933609 2.416667
-24.538754 1.4180987 2.6227174 2.25
-24.540127 1.3169584 2.6230273 4.5
-24.993378 1.3387791 2.5985365 3
-24.532806 1.3373946 2.8230488 13
-24.635324 1.4690275 2.4569225 2.166667
-24.963581 1.3209977 2.6410499 3
-25.007656 1.3267338 2.627461 8
-25.004221 1.3366114 2.5983086 2.5
-24.573841 1.3067354 2.6482763 75
-24.543053 1.3348593 2.642427 9
-24.56801 1.313059 2.854619 61
-24.562252 1.3169541 2.6593843 243
-24.586777 1.3370767 2.5579629 83.742424
-24.557541 1.3124051 2.7992816 210
-25.044161 1.2859542 2.689631 255
-24.593805 1.2643831 2.781245 218.33333
-24.584322 1.2569749 2.9694595 186.70834
-24.952829 1.3177574 2.8508148 9
-24.967575 1.3463945 3.0289211 2.5
-25.113539 1.4788589 2.540385 17
-25.131115 1.4942608 3.0251241 21
-25.084827 1.4937944 3.5113542 40.5
-25.302876 1.4915333 2.9620347 255
-25.346701 1.50103 3.4458408 255
-25.173386 1.5090094 3.4551387 170
-25.129019 1.4525042 2.7691414 132
-24.947954 1.3854952 2.7607503 255
-25.138529 1.4653521 3.2601357 129.5
-24.956079 1.4566135 2.6448371 3.5
-25.019741 1.4080963 3.1284513 170.33333
-24.624432 1.2351007 3.1133447 127.5
-25.021334 1.3367357 3.6130085 241.33333
-25.096113 1.295146 2.7678943 255
-24.944113 1.262557 2.7646754 255
-24.98245 1.4360266 2.7930813 2
-24.69578 1.2676487 2.7691448 255
-24.599184 1.2110491 2.7610638 147
-25.031116 1.385438 3.2835314 127.5
-24.595856 1.2281466 3.2696953 43
-25.013832 1.4628277 2.3582537 1.5
-25.110491 1.3585825 2.8422749 255
-24.640471 1.3117151 2.84743 255
-25.085146 1.3537169 3.3397584 226
-25.163197 1.3832054 2.9510403 131
-24.96113 1.36448 3.4616523 43.5
-25.065849 1.5122366 2.5689733 255
-24.966419 1.5062342 3.0779278 255
-25.273945 1.5690565 3.5786562 2
-25.153208 1.5236912 3.5798631 255
-24.593435 1.3630466 2.8802519 1
-24.663563 1.3769426 3.3930871 16
-25.189722 1.4385967 2.6914814 255
-25.124975 1.4233799 3.2666955 255
-25.08371 1.3560705 2.5450487 35
-25.069405 1.381938 3.1247454 128
-24.64023 1.3647404 2.778739 27
-24.619953 1.3087749 3.3940949 1
-25.279423 1.5487633 3.1565855 255
-25.103741 1.5184803 3.1440413 255
-25.163696 1.5231228 2.98382 255
-25.13303 1.3925762 2.7247345 170.66667
-25.153645 1.4052601 3.4813378 170.33333
-24.701202 1.2508564 3.4389808 170.66667
-25.112209 1.46175 2.7736771 255
-24.716476 1.2974663 3.4937568 2
-25.299129 1.5204945 3.548342 255
-25.112049 1.5054646 2.7155919 255
-24.976036 1.4368782 2.427984 7
-24.571579 1.25564 3.14166 55
-25.21212 1.436594 3.2080967 93
-24.99826 1.3493118 3.1815724 255
-25.040131 1.3632851 2.8659005 255
-25.042477 1.3602428 3.639086 255
-24.679314 1.3041058 3.6067371 191
-24.764095 1.2697411 3.5464692 255
-24.542603 1.1848335 3.5215793 128.5
-25.121056 1.4179745 3.5882771 128.5
-25.010361 1.2543449 2.8055623 255
-24.701065 1.2408772 2.7839489 255
-25.032066 1.2555027 3.5814214 255
-24.674679 1.192791 3.553359 255
-25.176903 1.3999996 3.6125965 2
-24.978977 1.5027142 2.9815278 255
-25.151054 1.4078674 2.5378976 255
-25.186317 1.3967724 3.317374 255
-25.265163 1.5085297 3.3399954 5
-24.909229 1.2186298 3.1430874 255
-24.63435 1.1781883 3.1188653 255
-25.056305 1.3476067 2.564255 255
-24.701462 1.2858715 2.5265822 128.5
-25.088558 1.3313236 3.3467243 255
-24.679585 1.224556 3.3021445 128
-25.197998 1.4276047 2.5878992 255
-25.264858 1.4695587 3.3844748 170.33333
-25.192699 1.4600315 2.5664926 246
-25.129822 1.4284363 3.3457184 255
-25.024979 1.3019409 3.0557404 255
-24.767097 1.2493324 3.02776 255
-25.137871 1.4787312 3.0930204 2
-24.976898 1.2783813 2.8699057 255
-24.684681 1.2537766 2.8477881 255
-24.924526 1.2628059 3.6597979 255
-24.591686 1.1793289 3.630152 170.33333
-25.083336 1.3098927 3.6750267 255
-24.989902 1.4087887 2.482234 7
-25.115738 1.3427486 3.277606 255
-24.752121 1.2881489 3.2526746 197.66667
-25.243397 1.5104122 3.0250626 255
-24.959789 1.3115788 2.9252338 255
-24.779751 1.2845612 2.9043431 255
-24.653091 1.292511 3.7064414 251
-25.012226 1.2435608 2.8570867 255
-24.65226 1.1871071 2.8220897 255
-24.764732 1.2012901 3.6412339 255
-25.061615 1.3139572 3.6772423 129.5
-25.15226 1.3630447 2.6221201 255
-25.178722 1.3751354 3.4308038 255
-24.532104 1.1950531 3.368619 20
-25.0802 1.4528465 2.3924727 7
-25.114407 1.3706131 3.1899567 255
-24.994972 1.5353832 2.577651 255
-24.532391 1.2869759 2.9403205 4
-24.753223 1.2811394 3.0481734 255
-25.029362 1.317009 3.0623994 255
-25.303642 1.4817352 3.0440664 255
-25.039139 1.3967438 2.4709435 7
-25.060574 1.3174667 3.3300772 255
-25.397213 1.5204811 3.3431778 6.5
-25.003654 1.2816925 2.5940876 255
-24.741211 1.2269478 2.5886207 255
-25.094528 1.4137726 2.6010354 4
-24.798229 1.2299347 3.4513817 255
-25.071396 1.3908081 3.4606922 6
-24.489208 1.2207565 2.776927 255
-25.03429 1.3099022 2.7658925 255
-24.77504 1.2510529 2.7707696 255
-24.695789 1.2280045 3.6407599 10
-24.528202 1.1815796 3.6450877 4
-24.829063 1.160038 2.79492 255
-25.065449 1.3648338 2.7958765 3
-24.978512 1.2263718 2.7936406 255
-24.823963 1.1617813 3.6618807 255
-25.073475 1.3515205 3.661756 2
-24.983898 1.2161064 3.6589029 255
-25.220961 1.3661613 2.5323417 255
-24.960382 1.3612709 3.5551524 255
-25.013424 1.3592529 2.6587057 255
-25.215219 1.3649826 2.7090478 255
-25.018633 1.3670692 2.5673242 255
-25.098118 1.3746376 3.6741176 63
-25.031919 1.3190002 2.604656 255
-25.033686 1.3445053 3.6811974 255
-25.088036 1.3612671 2.6778445 255
-25.287273 1.3764648 2.7189388 255
-25.053137 1.3664551 2.4840229 255
-25.249289 1.3888817 2.522841 255
-25.105413 1.3742218 3.5635135 255
-25.042839 1.3692055 2.5518012 255
-25.242111 1.3880844 2.5834894 255
-25.027794 1.3921509 3.6155789 255
-25.152494 1.354763 2.7637148 255
-25.053755 1.3696365 2.5461709 255
-25.234928 1.4007111 3.6791193 255
-24.940418 1.3474731 2.3314285 7
-25.098455 1.3462753 3.4711423 255
-24.993427 1.3298416 3.4057198 255
-25.160913 1.3456459 2.7563086 255
-24.945984 1.3289413 2.8266864 255
-25.137127 1.3479843 2.8819132 255
-25.205225 1.4160385 3.1546426 255
-25.198925 1.4096298 2.5214682 255
-24.998569 1.4103508 3.5654216 255
-24.726994 1.2957191 2.5329461 255
-25.12038 1.3187675 2.6300833 255
-24.998093 1.3348465 3.6963561 255
-24.939844 1.3073349 2.3608439 17
-24.689491 1.2573967 3.386903 255
-24.985132 1.2779427 3.4483349 255
-25.393135 1.4827309 3.5589342 2
-25.004322 1.2699623 2.7693939 255
-25.189299 1.3893089 2.6371715 255
-25.093193 1.3884125 3.7010202 40
-25.042715 1.3971519 2.4995458 255
-25.069151 1.402359 3.5892222 255
-25.193008 1.4167976 2.7622218 255
-24.980598 1.3622208 2.6428914 255
-25.019594 1.3820648 3.724524 46
-24.774471 1.2546234 3.0530114 255
-25.058283 1.2935944 3.1176476 255
-24.753204 1.2813072 2.9801331 255
-25.140987 1.3112602 3.0720263 255
-24.951347 1.2875595 3.0257759 255
-25.094034 1.3763084 2.9040837 255
-24.94252 1.349102 3.1051869 255
-25.049673 1.3827515 2.9721634 255
-25.085501 1.3466339 3.1649668 255
-25.193062 1.3672867 2.7640693 255
-25.044003 1.3533783 2.6817193 255
-25.013285 1.3749657 2.5685163 255
-25.09478 1.395298 3.6829619 255
-24.59824 1.3190994 3.6138816 255
-24.969776 1.376255 3.706084 255
-24.758163 1.2858925 3.2599323 255
-25.043322 1.307972 3.3325832 255
-25.210604 1.377243 2.9878986 255
-24.959332 1.3625183 3.188215 255
-24.959822 1.3663368 2.3697035 255
-24.472569 1.2788429 3.3263993 44
-25.109531 1.382782 3.5112193 255
-25.1124 1.3388939 2.7368245 255
-25.143793 1.3837471 3.4051907 255
-24.686993 1.2870789 2.5957375 255
-25.063723 1.3162766 2.6963139 255
-25.129866 1.3738441 2.5310812 255
-25.086123 1.3683319 3.6196156 255
-25.161348 1.3907928 2.6096389 255
-25.092579 1.3805313 3.7034147 255
-25.056355 1.3376923 2.8196254 255
-25.117144 1.3652382 2.8940368 255
-25.015652 1.328907 2.5659766 255
-25.346519 1.4538155 2.6784892 10
-25.040998 1.3548698 3.6870914 137.5
-25.207449 1.406353 3.1452732 228.5
-24.670593 1.3421707 2.861356 255
-25.028873 1.3841209 2.9809372 255
-25.04228 1.3383636 3.0596125 255
-24.868587 1.2488251 2.4348078 124
-25.041212 1.2885399 2.4941597 255
-24.518343 1.212265 3.4411116 255
-24.783213 1.2545815 3.528739 255
-25.056208 1.2731209 3.6153593 255
-24.814053 1.2549133 2.9058096 255
-24.993855 1.2751656 2.9642804 255
-24.671856 1.2631302 2.8863249 255
-25.122549 1.3054962 3.0411148 255
-25.272915 1.4065857 3.1063781 8
-25.138725 1.3283882 3.0758862 255
-25.319801 1.4234734 3.4253941 129
-25.219847 1.3695564 3.5502899 140
-25.092257 1.3409386 2.8338773 255
-24.367598 1.2157059 2.4967163 175
-24.643513 1.2732162 3.6619008 255
-25.108974 1.3473473 3.0478938 255
-24.994455 1.3212166 3.3237569 255
-24.949303 1.349411 2.4319026 29
-24.995953 1.330883 3.5468976 255
-25.266285 1.3811378 3.630595 150
-24.659637 1.3106499 2.5631373 255
-25.024893 1.3617516 2.6777329 255
-25.212519 1.3711624 2.7344091 255
-25.165989 1.3750725 3.1037765 255
-24.980818 1.3537407 3.0508831 255
-25.061226 1.3374405 3.1452801 255
-24.424181 1.2601738 2.7034791 255
-24.640648 1.3236084 2.5016117 255
-24.617373 1.3028336 2.4960561 255
-25.074667 1.361042 2.6443591 255
-25.066826 1.4317932 3.1033542 255
-25.349911 1.4507523 3.1755373 255
-25.031258 1.5036278 2.878618 255
-25.176052 1.4905434 3.3552957 255
-24.546394 1.3452492 2.4737957 23
-25.19784 1.4503593 2.5989108 255
-25.077892 1.4588814 3.6594591 255
-25.269911 1.4693413 3.6938796 36
-24.619488 1.3462715 2.7372575 255
-24.997131 1.3900185 2.8058157 255
-24.982759 1.3570099 3.3030772 255
-25.063787 1.4059639 3.346082 255
-25.061399 1.4165573 2.4720836 255
-25.255733 1.4331093 3.5797262 203.5
-24.474821 1.3176308 2.5506358 4
-24.647535 1.3877182 2.5822244 255
-25.023674 1.435112 2.6430669 255
-25.214163 1.4502563 2.6733131 255
-25.026705 1.450016 3.727344 71
-25.104362 1.3877602 3.4703476 255
-25.028564 1.3502235 3.3223541 255
-24.698063 1.2875595 2.5584464 255
-24.984417 1.2995033 2.6168914 255
-24.733849 1.2953262 3.6573834 255
-25.014866 1.3212242 3.7151465 240
-25.099058 1.307251 3.1296773 255
-24.372431 1.2041397 2.6614761 255
-24.642952 1.2586021 2.7261047 255
-25.015947 1.2925339 2.8112888 255
-24.801296 1.226059 3.3116589 255
-25.063087 1.2852821 3.3201058 255
-24.67594 1.2548904 2.4332795 255
-24.958721 1.2722778 2.5033951 255
-24.769596 1.2686386 3.5617089 255
-25.052151 1.2841377 3.630518 255
-25.290937 1.4312401 3.7055273 2
-24.711884 1.2737808 2.9882116 255
-24.995249 1.2884712 3.0590878 255
-25.130272 1.3507881 3.4956436 255
-25.073553 1.3589058 3.1123652 255
-25.023926 1.3933792 2.9633875 255
-24.421535 1.2957878 2.531389 160
-24.968489 1.3785858 2.6702764 255
-24.987627 1.3748436 2.9691191 255
-25.329031 1.4960976 3.0614977 12
-24.472555 1.3003082 2.356756 50
-25.028049 1.3570328 2.4871747 255
-25.13345 1.3813171 3.6097276 255
-25.295891 1.4660721 3.6557405 10
-24.948671 1.3643341 3.5669076 255
-24.531826 1.2652817 2.4520993 255
-25.08012 1.3423347 2.5830359 255
-25.00342 1.3401604 3.6621518 255
-25.144962 1.3440781 2.4109952 255
-25.068533 1.3284988 3.4888914 255
-25.321678 1.4255104 3.5575025 17
-24.521154 1.2555428 3.3575971 255
-24.698101 1.2968864 3.402003 255
-25.048813 1.3147011 3.3451767 255
-25.297262 1.4252815 3.4152889 9
-24.68326 1.26968 3.2562208 255
-24.603611 1.2695541 2.3402767 76
-24.976812 1.2979355 2.427844 255
-25.080921 1.3188972 3.5502977 255
-24.444794 1.2253838 3.397934 255
-24.619232 1.2745171 3.4423218 255
-24.404865 1.220726 2.5237136 149
-24.671267 1.2844391 2.5885797 255
-25.041853 1.321701 2.6740117 255
-25.388681 1.428688 2.7618051 3
-25.020931 1.3792 3.2804742 255
-25.285948 1.4490013 3.3357472 135
-24.648424 1.3421402 3.2093177 255
-24.987976 1.3442307 3.5252051 255
-25.341169 1.440136 3.5952353 9
-24.465181 1.2501831 2.3744876 255
-25.016245 1.3358841 2.4822757 255
-24.984137 1.3463669 3.5634792 255
-25.172901 1.356575 3.5982406 255
-24.385912 1.2636681 2.609024 90
-25.029989 1.3643456 2.7385025 255
-24.760015 1.2647896 2.4891045 255
-25.040012 1.2958755 2.5435851 255
-24.737623 1.2755547 3.5698788 255
-25.020403 1.2961159 3.6228936 255
-25.187143 1.3747635 3.6613495 11
-24.426315 1.2096443 3.2406108 255
-24.700722 1.2542763 3.2981327 255
-24.980198 1.2825279 3.3551309 255
-25.326511 1.3976631 3.4346759 4
-25.070053 1.3416901 2.3314795 20
-25.051899 1.3126411 3.4096618 255
-24.382248 1.2283363 2.7725108 255
-24.75036 1.2835617 2.8456233 255
-24.935648 1.3064651 2.8821347 255
-25.119642 1.3325272 2.9188244 255
-24.380203 1.2245483 2.3621724 52
-24.747837 1.2800789 2.4368155 255
-25.201061 1.3649635 2.5309737 130.5
-24.985741 1.3191032 3.5732834 255
-25.244722 1.4061737 3.6309531 11
-24.705446 1.29533 3.5186942 255
-24.720345 1.2535934 2.9675286 255
-25.166405 1.3524437 3.0662768 132
-24.534821 1.2341995 2.9288971 255
-24.862463 1.2654037 3.1441991 255
-25.293411 1.4085159 3.2463577 6
-24.407864 1.1908264 3.045264 255
-24.581715 1.244606 3.0856531 255
-24.416811 1.2087975 2.9402959 255
-24.784506 1.2589798 3.0220439 255
-25.053602 1.3148193 3.084234 255
-24.628244 1.2596703 2.9270501 255
-24.973083 1.3486786 3.3681011 255
-25.17626 1.3860931 3.1489437 255
-24.557816 1.292141 3.2697692 255
-25.200672 1.3668709 3.4375911 255
-24.409243 1.2254448 2.4857187 26
-25.048374 1.3222466 2.6515326 255
-24.987181 1.3919716 2.3579023 150
-25.182547 1.3913155 3.5026705 255
-24.738525 1.2971191 3.2372322 255
-25.025436 1.3103561 3.3018098 255
-24.730291 1.2696114 3.0868208 255
-25.015198 1.2911949 3.1496327 255
-24.686026 1.2860909 3.3614788 255
-24.972897 1.3037796 3.4236512 255
-24.598577 1.2614098 2.932662 255
-24.979977 1.2900963 3.0162644 255
-24.580912 1.2099533 3.0359869 255
-24.866562 1.2307625 3.1015291 255
-24.68895 1.2367783 3.1824179 255
-24.879385 1.2488327 3.2280588 255
-24.602526 1.2759819 3.1810126 255
-24.612883 1.3268623 2.4793782 255
-24.992142 1.3607101 2.5661314 255
-25.204731 1.4028015 3.7059519 4
-25.015926 1.3848572 3.66327 255
-25.098904 1.4487839 2.4873335 255
-25.234682 1.4846954 3.6063349 133.5
-24.630188 1.4090881 2.5265815 21
-25.181419 1.5070419 2.6476924 255
-25.232824 1.487999 2.7095046 255
-24.954493 1.4516296 3.1062515 255
-25.237593 1.4722366 3.1682155 255
-25.109684 1.4258499 3.3506379 255
-24.407269 1.2605324 2.6695223 11
-25.134876 1.3886795 2.8453355 255
-24.698032 1.2528915 3.1308522 255
-24.983049 1.2659683 3.1938391 255
-24.826078 1.2469559 2.339951 22
-24.769005 1.2382278 3.416626 255
-25.050083 1.2662048 3.4784579 255
-24.705208 1.2000275 3.0962915 255
-24.837404 1.2292633 2.4490128 255
-25.027565 1.2454643 2.4888108 255
-24.598553 1.2222786 3.4882905 255
-24.889133 1.2312279 3.5461829 255
-25.163134 1.2881699 3.606235 70
-24.881208 1.2470779 2.3860552 38
-25.021475 1.2554855 3.5007429 255
-24.637079 1.2353516 3.420383 255
-24.538292 1.2508202 2.5709434 255
-24.664412 1.2598038 3.0894055 255
-24.861023 1.2613487 3.1241241 255
-24.508558 1.2842789 2.376075 255
-25.081615 1.3472137 2.4671068 255
-24.99374 1.3574028 3.5279794 255
-25.277836 1.3940125 3.5727277 64
-25.000608 1.432106 3.196208 255
-25.051241 1.4448395 2.4541481 255
-24.963781 1.4471664 3.5096185 255
-25.251417 1.4675484 3.5541904 255
-25.237293 1.4093361 3.1256599 255
-24.750433 1.2528801 3.5337481 255
-25.03746 1.2750282 3.5765796 255
-25.017942 1.1849632 3.6870816 22
-24.842739 1.168911 2.9906976 255
-24.756124 1.1747704 3.1877551 255
-24.549631 1.1694183 2.8909192 255
-24.746721 1.1810913 2.9035964 255
-24.538136 1.2063675 2.8358717 255
-24.928473 1.2403717 2.8628142 255
-25.040115 1.3410416 3.3638549 255
-25.028526 1.4214973 2.5139642 255
-25.194357 1.435955 3.5932627 23
-25.023338 1.5313416 2.6727381 255
-25.042152 1.5078583 3.186852 255
-25.333139 1.527977 3.2114263 255
-24.607496 1.2278404 2.8199511 255
-24.902491 1.2375717 2.8505869 255
-24.655432 1.2312012 2.6039965 255
-25.0179 1.2624359 3.7055144 204
-24.513613 1.1732445 3.2780356 255
-24.80356 1.1956596 3.3203487 255
-24.468313 1.305748 2.3908041 12
-25.210491 1.4416962 2.5309374 255
-25.09992 1.4387741 3.5930188 255
-25.37681 1.4921188 3.6451576 2
-24.492609 1.3581352 2.6514835 6
-25.145405 1.4715309 2.7684491 255
-25.123617 1.365303 3.4633961 255
-24.5924 1.3637428 2.9950156 255
-25.157688 1.4193726 3.1028485 255
-24.992966 1.4992447 3.2328672 255
-25.27841 1.5150337 3.2834601 255
-25.056166 1.3928032 3.4394181 255
-24.402184 1.3336525 2.492624 5
-24.569811 1.4025459 2.5409191 255
-25.298441 1.4890938 2.7297285 255
-24.592899 1.317791 3.2226286 255
-24.956099 1.3494186 3.3216686 255
-25.380789 1.48172 3.4498367 4
-24.377144 1.1864128 2.6839299 61
-24.649635 1.2133484 2.757874 255
-25.088345 1.3050575 2.8829389 55
-24.652782 1.2582016 3.5209608 153.5
-25.100382 1.3221016 3.6406097 255
-24.569304 1.3122025 2.4537134 255
-25.032288 1.3406143 2.7517781 255
-25.18664 1.4209938 2.8751843 255
-24.722483 1.2953529 3.3372152 255
-24.998171 1.3054962 3.4101388 255
-24.611153 1.1967888 2.9602623 255
-24.887154 1.2142944 3.029067 255
-25.093639 1.3231392 2.4693871 255
-25.28492 1.4284515 2.6688187 135
-25.078758 1.427475 3.7035754 3
-25.101555 1.4234161 2.4558182 255
-25.068293 1.4151115 3.5313301 255
-25.155182 1.4602852 2.7822092 255
-24.399822 1.2356949 3.2154853 255
-24.759758 1.2730637 3.301893 255
-24.943825 1.2754059 3.3444874 255
-24.935795 1.2713814 2.9354892 255
-25.191259 1.3525314 3.0030637 17
-24.662075 1.2586517 2.8703413 255
-24.704433 1.2832756 2.4467061 255
-24.721073 1.278717 3.5230396 255
-24.994061 1.2893486 3.5873954 255
-25.052074 1.3791199 2.4593768 255
-24.991205 1.3870049 3.507688 255
-25.089809 1.3871269 2.7682352 255
-24.65107 1.2619896 3.2717528 255
-24.343166 1.2076874 2.997642 255
-24.782545 1.2517128 3.1270452 255
-25.047054 1.2725945 3.2045984 255
-25.034822 1.3285942 2.7099888 255
-25.271481 1.4118462 3.3315196 255
-25.108 1.4522705 3.1807635 255
-24.991512 1.3596725 2.9508669 255
-24.782574 1.2342148 2.6907949 255
-24.956839 1.2478218 2.7451582 255
-24.589352 1.242054 2.9234338 255
-24.854185 1.2522163 3.0021672 255
-25.04631 1.3912582 2.3928773 255
-25.031742 1.3882675 3.4395111 255
-24.986378 1.3882675 2.7906883 255
-24.727882 1.2907715 3.0558434 255
-24.990791 1.3040047 3.1256318 255
-25.242531 1.3709373 3.1976738 16
-24.539518 1.2421188 3.2317638 255
-24.891069 1.2504921 3.3302569 255
-25.062336 1.2753334 3.3804317 255
-25.227356 1.3309555 3.4320192 12
-24.774496 1.1754837 3.1471875 255
-25.113787 1.2486458 3.2447016 25
-25.029499 1.4815254 3.2693748 255
-25.29681 1.4943962 3.3436098 255
-25.067085 1.5012016 2.5769176 255
-25.186234 1.5159531 3.633687 255
-24.962421 1.5059586 3.2557397 255
-25.312702 1.525856 3.3376555 255
-24.823303 1.2656746 2.5059857 255
-24.481598 1.2464905 3.4649363 255
-24.930134 1.1803398 2.8479242 255
-25.037518 1.3641281 3.324779 255
-25.039879 1.3288727 3.4541678 255
-25.209194 1.3902321 2.9468534 255
-25.085054 1.3291283 2.7301393 255
-24.478653 1.2981377 3.6125321 255
-24.573959 1.2656021 3.2252765 255
-25.003883 1.2855949 3.3420978 255
-25.00782 1.3130836 2.7999396 255
-24.591528 1.2566566 3.4193447 255
-25.068001 1.3734894 2.966074 255
-24.647465 1.3318825 3.111958 255
-24.994486 1.3438148 3.1874928 255
-24.521503 1.2537003 2.9525213 255
-24.336594 1.2371559 3.0655842 10
-25.016727 1.3080711 3.2385807 255
-25.352024 1.3778572 3.3268752 9
-25.083332 1.3545265 2.4368501 255
-25.259634 1.3896141 3.5041113 172.33333
-25.259102 1.4028854 2.5090888 255
-24.576769 1.3695297 2.3440473 255
-25.002777 1.3953133 2.4472167 255
-25.107988 1.3950768 3.4939959 255
-24.9673 1.3220863 2.471283 207
-24.321648 1.259388 3.3399386 172
-25.253309 1.3556519 3.555388 19
-24.46034 1.2239037 2.8626275 255
-24.88596 1.2442513 2.9693933 255
-25.222136 1.293808 3.0562329 8
-24.506594 1.300106 2.3411887 255
-24.595594 1.3098717 3.373873 255
-24.935299 1.3209534 3.4626043 255
-25.354664 1.3786964 3.5757325 8
-25.144661 1.3396759 3.2661176 255
-25.42421 1.4445 3.0717425 255
-25.112934 1.3874779 2.4145331 255
-25.28183 1.39888 2.4566498 255
-25.213657 1.393959 3.4490004 255
-25.380436 1.4241409 3.4919562 27
-24.49637 1.2893181 2.9967837 255
-25.004124 1.3061409 3.1238322 255
-25.169556 1.3491058 3.1677217 24
-25.3367 1.3756218 3.2110734 3
-24.76144 1.2581329 2.5551531 255
-25.012016 1.284996 2.624872 140.5
-25.260471 1.3346634 2.6954176 3
-24.67131 1.2541809 3.5358646 255
-25.089005 1.2925529 3.6519473 134
-24.960018 1.3371162 2.4549692 255
-25.294216 1.3697548 2.5475156 135
-24.453417 1.2984276 3.3193686 25
-24.955009 1.3360252 3.4574416 255
-25.205215 1.360878 3.5269797 152.5
-25.099691 1.3341331 2.5988855 255
-24.592224 1.319664 3.4727437 255
-24.642481 1.3626938 2.6535783 133
-24.394066 1.2735901 2.9695573 134.5
-25.152969 1.3303261 3.1296458 173
-24.745272 1.2968636 2.3448408 28
-24.997599 1.3017197 2.4068696 199
-24.347067 1.2485619 3.2458422 255
-24.51486 1.2538261 3.2869456 255
-24.850397 1.2627373 3.3692749 255
-25.017193 1.2783241 3.4110248 255
-25.350925 1.3078918 3.4946959 3
-24.266804 1.2199898 2.5064745 39
-24.517662 1.2438049 2.5692573 255
-25.021233 1.2679977 2.6945148 164.5
-25.271465 1.3002625 2.7579508 5
-24.788841 1.2495193 3.6282139 255
-24.348007 1.2204742 2.8435967 14
-24.513319 1.2682838 2.8833067 255
-25.019766 1.2769623 2.9979522 255
-25.186968 1.3026924 3.0371459 255
-25.355034 1.3159218 3.0759256 8
-24.640783 1.3273544 2.4433804 129.5
-24.977058 1.3510971 2.5235758 255
-25.230001 1.3565712 2.5834785 255
-25.00605 1.3484039 3.5252342 255
-25.258255 1.3624916 3.5854626 255
-24.608828 1.3328209 2.671087 177
-24.446182 1.2576218 2.7347727 255
-24.95014 1.274025 2.8481898 255
-25.200781 1.3044128 2.9058754 18
-25.064907 1.2812386 2.8706241 6
-24.502075 1.3076248 3.7221279 2
-24.344774 1.2602806 2.4400823 131
-24.678297 1.2760353 2.5239027 255
-25.104345 1.2976456 2.6313224 255
-24.52681 1.2724533 3.4790275 255
-24.952602 1.2900658 3.586256 255
-25.285549 1.3083344 3.6706502 6
-24.404427 1.2344322 3.0661764 135
-24.987024 1.2528572 3.2127874 255
-25.235523 1.287159 3.2769794 132.5
-24.704418 1.3036346 2.7353954 147.5
-25.116661 1.3123932 2.8587191 255
-25.289545 1.3449135 2.3191288 255
-24.524511 1.3239975 3.085531 83
-25.344168 1.3587074 3.3311694 250
-24.648899 1.295475 2.3291628 208.5
-25.062683 1.3095856 2.4393055 149
-24.569948 1.2875443 3.2934997 255
-25.147715 1.3220825 3.4484818 135.5
-25.396101 1.3132858 3.5141127 3
-24.449783 1.2629852 2.340385 255
-24.696281 1.2797165 2.4108534 255
-25.189404 1.3136864 2.5522356 6
-24.435497 1.2770653 3.3264923 255
-24.928612 1.2910347 3.467164 143
-25.188934 1.3422928 2.9854689 255
-24.965265 1.2547073 2.7610552 10.5
-25.212439 1.2736778 2.8288786 21
-24.387365 1.2207832 3.5881424 129
-24.634617 1.2193794 3.6548562 255
-24.546995 1.3253632 2.6239133 9
-25.208187 1.3165817 2.7904639 255
-25.373152 1.3410454 2.8330836 255
-24.317438 1.2822227 3.0155106 10
-24.482988 1.289093 3.0530639 255
-25.062641 1.3048782 3.1848164 255
-25.393799 1.3232918 3.2609162 6.5
-24.399569 1.2876854 2.3486838 255
-24.7311 1.2963028 2.4267688 255
-25.062616 1.3073044 2.5050974 255
-24.348879 1.2796707 3.3091164 255
-24.679945 1.2834778 3.387043 255
-25.258953 1.3249016 3.5256186 10.5
-25.270531 1.3446503 2.4903612 255
-24.562117 1.3416443 3.3063078 129
-24.975187 1.3396988 3.4005418 255
-25.140329 1.3587494 3.4392037 255
-25.305574 1.3652725 3.4774327 100
-24.300577 1.2560349 3.0340049 3
-24.4657 1.2368279 3.0729125 255
-24.960041 1.2359734 3.1923044 255
-25.124784 1.2506065 3.2328894 255
-25.372114 1.2834816 3.2944381 10
-24.35643 1.3063774 2.8654823 6
-24.519384 1.3221092 2.9145083 255
-25.171829 1.3396988 3.1096153 255
-25.416782 1.3610115 3.1835546 9
-24.379307 1.2857513 3.0673409 144.5
-24.95265 1.3069496 3.2202229 255
-25.198496 1.3148041 3.2859607 131
-24.935371 1.297184 3.188648 172.66667
-24.572121 1.2938004 2.4035506 255
-24.341084 1.290226 3.3229051 255
-24.669407 1.2825623 3.4053202 255
-25.08005 1.3134918 3.5104303 132.5
-24.328066 1.2886887 2.5419838 5
-24.656109 1.2962189 2.624737 255
-25.23032 1.303215 2.77 134.5
-24.508778 1.3203163 3.5582635 135
-24.412796 1.2554359 3.01686 16
-24.576012 1.2797699 3.0642076 255
-25.228159 1.2838516 3.2505126 255
-25.390951 1.2735558 3.2967334 9
-24.678034 1.3006554 2.8794532 255
-25.162706 1.3164864 3.0385628 255
-25.405075 1.3185196 3.1180737 26
-24.426607 1.3308983 2.8463485 129
-25.242691 1.3533058 3.0750799 137.5
-24.297503 1.2984581 2.9063504 10
-25.11949 1.3223915 3.1031401 255
-25.365622 1.3085403 3.1617017 7
-24.979067 1.2817535 3.1505804 172.66667
-24.565727 1.3195152 3.0385587 255
-25.381382 1.3320045 3.2689662 88
-25.023815 1.3052254 2.4521346 255
-25.34597 1.2995377 2.5536985 89.666664
-25.062538 1.3050003 3.454597 178.66667
-25.384232 1.2975578 3.5563526 3
-24.512903 1.3150024 2.7310715 255
-24.673931 1.3123779 2.7824292 255
-25.238588 1.3249016 2.9633207 144.5
-24.549072 1.3330688 3.7344151 4
-24.388882 1.2934647 3.0231206 129
-25.199841 1.3017273 3.2611649 139.5
-24.286627 1.2840652 2.4263339 14
-24.531223 1.2979393 2.4938331 255
-25.020493 1.312233 2.628871 255
-25.265202 1.3166504 2.6964917 8
-24.363201 1.3045349 3.4256754 255
-24.688532 1.2992439 3.5153599 255
-25.177248 1.3077393 3.6510086 3
-24.664274 1.306736 2.4508612 100.33334
-25.195793 1.2961807 3.5388873 6.5
-24.987614 1.3034515 3.2874207 136.5
-25.232868 1.2997475 3.3507459 2
-25.284039 1.3073235 2.4498377 27
-24.639515 1.3058968 3.2519424 210
-24.966705 1.3167038 3.3376071 255
-25.211712 1.3119888 3.4014766 7
-25.110209 1.303772 2.8832831 255
-25.020924 1.3245697 2.3820081 27.5
-25.106052 1.3199043 3.3711176 15.5
-24.450623 1.3132172 2.7080841 55
-24.564724 1.2983704 2.7505612 173.66667
-24.612686 1.3013573 3.749136 5
-24.507662 1.308815 2.724926 142.5
-25.06707 1.3090248 2.8948088 255
-24.545122 1.329361 3.7249508 6.5
-24.3629 1.3035927 2.7965302 94
-24.522747 1.2972603 2.8438501 255
-24.513868 1.3003998 3.0589619 255
-24.414974 1.2979469 3.0726926 134.5
-24.395662 1.3094902 3.209682 255
-24.269554 1.2770233 2.5653625 2
-24.511318 1.2919426 2.6346097 255
-24.332045 1.2772179 3.5674353 9
-24.390011 1.2861824 3.0550144 255
-24.453617 1.2818413 2.84742 255
-25.189541 1.2993393 3.0327978 91
-24.655451 1.3057747 2.5771132 255
-24.983673 1.3043823 2.6580977 147
-25.229834 1.3010139 2.7188334 2
-24.349194 1.2920151 3.466924 255
-25.169954 1.3036728 3.6707511 88
-24.461439 1.302002 2.5098777 255
-25.038462 1.3145256 2.6449943 255
-25.286051 1.3203621 2.7029867 11
-24.414291 1.3110008 3.4592643 241
-25.073599 1.3114128 3.6139054 167.5
-25.321699 1.3261452 3.6727037 3
-24.349102 1.2928925 2.3934345 2
-24.596592 1.2997475 2.4499464 255
-25.0093 1.307766 2.5441294 255
-25.339485 1.3094101 2.6193984 13
-24.472401 1.3116493 3.3807797 255
-24.637283 1.3086777 3.4183645 255
-25.215363 1.3159523 3.5508657 142.5
-25.110363 1.3088379 2.3690486 255
-25.357199 1.2957878 2.4256203 54
-24.571218 1.2980881 3.204905 134.5
-25.31315 1.2976761 3.3761296 132
-24.561924 1.3234749 2.5647707 128
-24.971216 1.2842636 2.6619644 255
-25.382484 1.2920647 2.7606885 139.5
-25.164558 1.2965355 3.6742759 29
-25.326435 1.296917 2.3539982 68
-24.679337 1.2896042 3.1566892 255
-25.413162 1.2912407 3.3506765 65
-24.521132 1.2823868 2.9555342 130
-25.33107 1.2935524 3.1913729 135
-24.605009 1.3185425 2.4710455 186
-25.010851 1.3233604 2.5867443 255
-25.254444 1.3254547 2.6562934 9
-24.428837 1.3125 3.3993764 182.5
-24.671768 1.3082008 3.4686089 255
-25.158585 1.3196945 3.6084461 138.33333
-25.143755 1.3072014 2.5511274 147.33333
-24.497034 1.2998314 3.3509698 255
-25.06909 1.321701 3.5028849 255
-25.313644 1.3104515 3.5672512 10.5
-24.332899 1.2974281 2.6164412 255
-25.15852 1.3178978 2.8011494 90
-24.541897 1.3003082 3.6239495 255
-24.954933 1.318161 3.7172461 171.66667
-24.342867 1.3004799 2.6791949 248
-24.508778 1.2987213 2.7114182 255
-25.256077 1.2981377 2.8568811 43
-24.414108 1.3083954 3.6470289 53.5
-24.533443 1.293499 3.240099 243.5
-24.948179 1.2955666 3.3244605 255
-25.279625 1.2852859 3.3915153 88.666664
-24.688204 1.2731209 2.7748404 255
-25.017811 1.2755547 2.8525338 255
-25.347818 1.2818298 2.9304206 130
-24.557911 1.2976074 3.7060173 5
-24.65741 1.285183 2.7148066 38
-25.212782 1.2868538 2.7518971 19.333334
-25.059631 1.3274155 2.378623 12
-24.509983 1.320961 3.2110181 16
-25.083664 1.3054924 3.3504734 143
-25.33057 1.3197861 3.4113121 5
-24.571774 1.2752953 2.5547631 19
-24.816738 1.2639656 2.6176023 255
-25.225855 1.2625732 2.7230613 255
-24.582956 1.2506638 3.5262482 136
-24.714239 1.2991638 2.8989005 255
-25.364878 1.302063 3.0821896 255
-25.083216 1.2680702 2.3111181 255
-24.483473 1.2859802 2.4457586 1
-24.647915 1.3190346 2.4851997 255
-24.973753 1.2996445 2.5620172 255
-25.301191 1.3140984 2.6400969 255
-24.676401 1.3147812 3.459204 144.5
-25.083958 1.3133049 3.5563447 255
-25.328911 1.3187256 3.6152027 138
-24.281103 1.3344307 2.638346 1
-24.526064 1.3135338 2.689923 255
-25.263554 1.3251228 2.8479497 94.333336
-24.375065 1.2944908 2.5824282 18
-24.39134 1.2875252 2.9000018 255
-24.465267 1.3014336 2.6095936 255
-24.707558 1.285862 2.6795554 255
-25.031963 1.3032951 2.7742572 255
-24.447592 1.2961731 3.5790353 214.5
-24.379934 1.3144226 2.8783052 131
-24.703592 1.2974243 2.9698186 255
-24.947466 1.3163147 3.0397592 255
-24.525942 1.3018837 3.2334232 255
-24.932543 1.3131981 3.3456674 255
-24.633287 1.2924767 2.9791427 255
-24.960182 1.3040657 3.0624399 255
-24.485756 1.3216743 2.6044593 129
-25.139324 1.3284531 2.7686582 255
-24.597069 1.3049049 2.3408129 255
-25.251904 1.3196907 2.4945261 133.5
-24.465408 1.3191109 3.2776849 109
-24.464352 1.3015404 2.5637274 80
-24.709692 1.2918625 2.6193247 255
-25.037258 1.2911949 2.6940675 255
-24.500816 1.2780571 3.5375938 255
-24.745714 1.2713432 3.5933671 255
-24.519367 1.2940559 2.8483963 172
-25.173901 1.3062668 3.0092959 255
-25.033979 1.3026161 2.5361452 255
-25.197399 1.3342972 2.5840378 255
-24.529661 1.2971268 3.3705254 255
-24.934238 1.3033371 3.4883194 255
-24.476833 1.2934952 2.442328 135
-24.958862 1.3006134 2.5962713 255
-25.200361 1.312439 2.6736989 34
-25.361444 1.3196106 2.7253997 2
-24.672539 1.2953186 3.4936366 255
-25.073845 1.3015137 3.6226597 171.66667
-24.93519 1.3031578 3.1172674 25
-24.653316 1.2979317 3.1644583 191
-25.045675 1.2945709 3.3046627 255
-24.280346 1.3367043 2.7510724 255
-24.437263 1.3034973 2.8051939 255
-24.989832 1.3309555 3.0001225 138.5
-25.226507 1.3334389 3.0836959 3
-24.423077 1.3285942 2.4388971 255
-24.382315 1.3166771 3.415298 255
-24.458 1.3250847 3.119997 175.33333
-25.107332 1.3365021 3.3236408 26
-24.582573 1.3197784 2.424531 152.5
-25.228889 1.3180008 2.6221733 8
-24.388662 1.3272285 3.3512526 93
-24.63055 1.319355 3.4250956 255
-24.954149 1.340374 3.5251641 245
-24.508204 1.3042793 3.0607026 255
-25.236794 1.3458061 3.2876503 1
-24.416054 1.3194885 2.5779061 255
-24.658112 1.294075 2.6510181 255
-24.982471 1.3097 2.7501116 255
-24.466303 1.3080673 3.576076 255
-24.426752 1.2951317 2.8499227 40
-24.749825 1.2853127 2.9495711 255
-25.073797 1.295826 3.050137 240.33333
-24.637541 1.2794685 2.8144171 134
-25.20689 1.2908897 2.9810781 255
-24.794485 1.2696152 2.497653 255
-25.03896 1.2591057 2.5615849 255
-25.209333 1.2835999 3.5823889 22
-24.714949 1.2820969 2.9773531 255
-25.039013 1.2650795 3.0643244 255
-25.364704 1.2824211 3.1528149 255
-24.441708 1.3054199 3.1546164 1
-24.683975 1.2885132 3.2195945 255
-24.367001 1.3046875 2.5229688 4
-24.610662 1.2933769 2.5852418 255
-24.93597 1.2911987 2.6688752 255
-24.410217 1.3106918 3.0978305 149.5
-24.737881 1.2958298 3.1696384 255
-25.231026 1.314518 3.2795417 54
-24.555452 1.2974815 2.8426971 255
-25.29879 1.3083534 2.993206 4
-24.356857 1.297451 3.1453094 255
-24.603485 1.286129 3.1976333 255
-25.01594 1.3060837 3.2867336 255
-25.181068 1.3139038 3.322504 22
-24.65239 1.3217773 2.3964479 5
-24.37418 1.2961731 3.3002622 216.5
-24.704067 1.2917366 3.3703361 255
-24.952192 1.3070564 3.4238667 255
-24.436954 1.3023033 2.5700293 174
-25.183737 1.308876 2.7184069 103.5
-24.337824 1.3009224 3.5084631 129
-24.58663 1.3077087 3.5582416 255
-25.084597 1.3187141 3.6580527 115
-24.319862 1.29319 3.1757658 37
-24.568916 1.2941055 3.2244918 255
-25.067698 1.3064728 3.3226388 170.5
-24.465004 1.3025246 2.6100006 255
-24.713545 1.2909584 2.660042 255
-25.129253 1.3076439 2.7446804 174
-24.527931 1.2913857 3.5809271 165
-24.94276 1.2906685 3.6653059 130
-24.381924 1.237545 2.4088304 1
-24.631834 1.2882881 2.4624805 255
-25.046448 1.2969093 2.5501409 255
-25.377895 1.2936821 2.6201057 8
-24.521729 1.2951965 3.399369 255
-24.769867 1.2863846 3.4515998 255
-25.267452 1.2972488 3.5575864 136.5
-25.004719 1.3068008 2.3328347 7.5
-25.253931 1.3188019 2.3860116 1
-24.478456 1.2968178 3.1810646 128.5
-24.808773 1.2746658 3.2507575 255
-25.223564 1.29179 3.3399332 174.66667
-24.626896 1.2845268 2.8176837 255
-25.039711 1.2879677 2.9112737 255
-24.706036 1.2896385 2.3474946 28
-24.953375 1.2887573 2.404253 255
-25.283436 1.2904816 2.4801402 130
-24.496349 1.2867737 3.263761 112
-24.743402 1.2839088 3.3205643 255
-25.073391 1.291626 3.3969598 255
-24.413275 1.2467804 2.4302149 2
-25.237377 1.2824974 2.6229854 255
-24.694426 1.2786522 3.4645419 219.66667
-25.105974 1.2869682 3.5613141 255
-24.519457 1.2675972 2.571178 255
-24.765013 1.2654648 2.6318867 255
-25.011074 1.2742462 2.6930416 255
-24.539843 1.286541 3.548214 135.5
-24.784742 1.2713699 3.6085212 255
-25.112505 1.2824745 3.6906536 7
-24.661501 1.2711258 3.0082645 174.66667
-25.068745 1.2732124 3.1168089 255
-25.313538 1.281662 3.1824274 255
-25.037857 1.3066483 2.333714 40
-25.199795 1.302536 2.3797894 255
-24.619492 1.2788048 3.1863775 130
-25.023746 1.2770691 3.3017693 255
-25.34796 1.2907219 3.3951001 133
-24.433426 1.2835579 3.1385405 92
-24.755033 1.2769012 3.235822 255
-25.157986 1.2901039 3.3586862 174.5
-25.179338 1.2962074 2.4456162 255
-24.57058 1.2785225 3.2308631 138
-24.970627 1.2829819 3.3610291 255
-25.211206 1.2956009 3.4398246 255
-24.35743 1.2779961 3.016995 2
-24.676937 1.2837029 3.122272 255
-25.156509 1.2909508 3.2806869 255
-24.46899 1.265049 3.1595249 131.5
-24.868816 1.2599525 3.2885389 255
-25.190126 1.2886543 3.3934627 255
-24.406532 1.2867851 2.5533051 128.5
-24.725182 1.2834091 2.6617017 255
-25.124296 1.2955055 2.7981367 138
-24.504862 1.3170128 3.5757627 80
-24.333782 1.2720032 2.6560588 4
-24.571468 1.2743225 2.741554 255
-24.968109 1.2854309 2.8846891 255
-25.285418 1.2903709 2.9993348 16
-24.418896 1.2634926 2.5748255 128.5
-24.814203 1.2701302 2.7202702 255
-25.131124 1.2882614 2.8373401 255
-24.650251 1.2878952 3.6572216 46
-24.333548 1.2890282 2.6224542 2
-24.650276 1.2776527 2.7357111 255
-25.047024 1.2844734 2.878293 255
-25.363415 1.2646294 2.9917669 16
-24.493708 1.2823143 3.6734877 2
-24.556707 1.2816734 2.7062602 255
-24.953014 1.2826157 2.8489499 255
-25.348843 1.2706718 2.9915404 36.5
-24.463861 1.283802 2.8776722 129
-24.780952 1.2732315 2.9900324 255
-24.600584 1.3108292 2.3462224 8
-25.155905 1.2965279 2.5457988 255
-25.39397 1.2913628 2.6315517 5
-24.51943 1.2860794 3.3182158 153
-24.966589 1.3148918 2.3909855 255
-25.363049 1.3102875 2.5352311 6
-24.40679 1.2952118 3.1898942 8
-24.644325 1.2983398 3.2765045 255
-24.48942 1.3041229 3.0292969 138
-25.04521 1.309082 3.2276227 255
-24.617548 1.2916145 2.4027488 255
-25.014904 1.2915726 2.5423162 255
-24.387939 1.2931023 3.3131478 14
-24.704967 1.286335 3.4245889 255
-25.101765 1.289402 3.5647786 176.5
-25.110607 1.3311996 2.3719187 137.5
-24.563129 1.3007355 3.1706128 255
-25.198652 1.312973 3.3938971 174.33333
-24.643427 1.2983017 2.9467342 255
-25.276827 1.3046455 3.1746247 173.66667
-24.392975 1.3122177 2.3622885 3
-24.630459 1.2925301 2.4442019 255
-25.02784 1.3036194 2.5822878 255
-25.346375 1.322525 2.6933827 13
-24.402731 1.325489 3.3635044 1
-25.036476 1.3169861 3.5840831 96
-24.375151 1.3132286 2.8586378 5
-24.613134 1.2989845 2.9380236 255
-24.931093 1.2995491 3.0448341 255
-25.171139 1.3346062 3.1265211 255
-24.352777 1.2995491 2.6318212 2
-24.67238 1.2875862 2.7312617 255
-25.072567 1.2909851 2.8565593 255
-24.549742 1.2755013 3.6857891 1
-24.373247 1.2858124 2.7977204 7
-24.693821 1.2642784 2.8923078 255
-24.417997 1.3102646 3.1847138 128.5
-24.407135 1.2834511 3.2678928 117
-24.647211 1.2867699 3.3434086 255
-25.047531 1.2925148 3.4696999 255
-25.207939 1.2994576 3.5205984 229
-24.41144 1.2618484 2.7436197 3
-24.54744 1.2863922 3.1383798 255
-25.042358 1.3183365 2.4065454 255
-24.513222 1.2937012 3.2171805 255
-24.391346 1.2764549 2.5792108 8
-24.631449 1.290493 2.6588016 255
-24.57873 1.3096771 3.626797 39
-24.443604 1.3179512 2.969552 1
-24.472206 1.2975769 2.6876204 129
-25.192802 1.3119011 2.9129865 174.66667
-24.546225 1.300354 2.3637359 211
-24.946386 1.299202 2.4875815 255
-25.186659 1.3012352 2.5622351 133.5
-24.346178 1.2750664 3.2928307 5
-24.665863 1.2890434 3.3925598 255
-25.145611 1.3040886 3.5426795 255
-25.303356 1.2588196 3.5905259 13
-24.991108 1.2951965 2.4180837 255
-25.231136 1.2967987 2.4935951 129.5
-24.387714 1.2653389 3.2209535 3
-24.706905 1.274765 3.3216228 255
-24.946461 1.2823906 3.3974338 255
-25.186255 1.2929649 3.4735894 255
-25.346365 1.303299 3.5246592 18
-24.579594 1.2946663 3.2836804 133
-24.979288 1.2877541 3.4054446 255
-24.514536 1.2900352 3.2348187 255
-25.157822 1.2898026 3.4186409 255
-25.31959 1.3083992 3.4656885 20
-24.411346 1.2838593 2.495136 128.5
-24.289543 1.2820168 2.8905249 1
-24.532074 1.2825279 2.9564881 255
-24.452955 1.279438 2.4603462 135.5
-24.344025 1.2703438 2.6855237 130
-24.586685 1.2651634 2.7522967 255
-24.56867 1.302269 2.3926935 255
-25.221025 1.3042984 2.5607743 255
-24.580441 1.2909241 3.3605165 134.5
-25.068916 1.2948761 3.4870911 255
-25.313948 1.3111076 3.5512953 126
-25.224855 1.3117447 2.5864515 5.5
-24.50209 1.2626457 3.3641701 128.5
-24.990469 1.2688332 3.4904246 255
-25.235336 1.2831879 3.5543594 255
-24.451202 1.3202705 3.0023456 209
-24.547283 1.2989807 2.7156148 54
-25.036417 1.2961807 2.836452 255
-24.484921 1.2852554 3.6701388 6
-25.000973 1.3091812 2.3774152 255
-24.442608 1.3146515 3.2072024 2
-24.547491 1.2756157 2.9000216 138
-24.79225 1.2730598 2.9614315 255
-25.282719 1.2853661 3.0854073 94.333336
-24.603992 1.2860832 2.6172833 213
-25.26173 1.2900314 2.7686224 132.5
-24.476467 1.2964973 3.5552354 54
-24.639864 1.2735558 3.5919724 255
-25.050798 1.2877045 3.6874876 13.5
-24.565168 1.2937775 2.9592319 223.5
-25.308422 1.2992935 3.1157351 97
-24.340469 1.2759056 2.84372 30
-24.505808 1.2700005 2.8767133 255
-25.002987 1.2822189 2.9770274 206.33333
-25.334471 1.2844582 3.0439162 6
-24.547573 1.2983398 2.4347816 25
-24.712589 1.2878723 2.4696255 255
-25.208702 1.2837486 2.5751166 105.33334
-24.352098 1.2638359 3.3525381 17
-24.600039 1.2698517 3.4056261 255
-25.096245 1.280426 3.5120711 255
-25.343983 1.2729988 3.5648639 7
-24.559734 1.2894516 3.013773 208.66667
-25.220604 1.2936249 3.1599712 148
-24.721424 1.2796059 2.9718342 255
-25.13385 1.2931595 3.0683651 179.66667
-24.63574 1.2887993 2.9235582 196.5
-25.127628 1.2954025 3.0502353 255
-25.372839 1.2799988 3.1129866 11
-24.391371 1.2624054 3.1273215 9
-24.637157 1.2699356 3.1911237 255
-24.964888 1.2741966 3.2761147 255
-25.37495 1.2815857 3.382688 10
-24.44236 1.2664185 3.0004282 13
-24.68931 1.2877884 3.0618386 255
-25.018101 1.2938614 3.1430497 255
-24.561741 1.3065796 3.1106505 81
-25.302319 1.3037758 3.2875967 139.5
-25.025948 1.3229523 2.3737242 30.5
-24.475473 1.2954216 3.2034512 128
-25.298103 1.2913895 3.4037218 75
-24.58646 1.2946892 2.6435006 159.5
-25.243029 1.3037186 2.8126531 138.5
-24.681562 1.288765 3.6353359 6.5
-24.670509 1.2722015 3.1005552 175
-25.081476 1.2776222 3.2034147 255
-25.327799 1.2720871 3.2648518 32
-24.422653 1.3172722 3.0794816 3
-25.246046 1.2956085 3.2757487 132.66667
-24.64439 1.2916985 2.3719349 255
-25.056036 1.3097725 2.4737964 255
-24.420931 1.3015976 3.2815776 35
-25.161404 1.3189774 3.4655545 133.5
-24.499165 1.2749138 2.8648863 171
-25.23785 1.2802849 3.0495231 138.5
-24.633734 1.2996445 3.1270342 255
-25.044302 1.3041077 3.2311831 255
-25.290234 1.2948112 3.2932658 56
-24.493666 1.3013573 2.7897813 92
-24.738827 1.2811012 2.8531256 255
-25.067263 1.2955971 2.9390574 255
-24.466103 1.3062897 2.7399387 41
-24.628962 1.2836304 2.7829442 255
-25.202316 1.2959251 2.9365726 154.5
-24.607279 1.2975197 2.4563315 238
-25.097902 1.2932281 2.588017 255
-24.44804 1.3401031 3.3852143 2
-25.182871 1.2956505 3.5816984 174.5
-24.32851 1.2751274 2.8074944 9
-25.145636 1.3023949 3.0345244 255
-25.390226 1.2907295 3.1020193 10.5
-24.53981 1.2893562 2.6190705 255
-24.782715 1.2787209 2.691988 255
-25.18886 1.290287 2.814512 175.33333
-24.594927 1.2846565 3.6132388 255
-25.141565 1.295742 2.4203057 188.66667
-24.550205 1.310791 3.2209454 146
-25.280979 1.3045082 3.4395075 144
-24.55344 1.2915916 2.5089607 255
-25.042591 1.2970467 2.6474798 255
-25.369057 1.3018265 2.7400088 93.333336
-24.461847 1.2887611 3.4566159 4
-24.706543 1.2972107 3.5263758 255
-25.032608 1.2980423 3.6190336 129
-24.967157 1.306015 2.3460612 255
-25.293924 1.3135033 2.436867 129.5
-24.634487 1.2881126 3.2275109 255
-25.124289 1.3033409 3.364397 255
-25.368874 1.2991066 3.4324932 84.5
-24.448832 1.2849274 2.9367404 133
-25.181719 1.2926216 3.1445563 174.33333
-25.009272 1.3076553 2.4037404 190
-25.332899 1.2950897 2.5017781 5
-24.575354 1.3113556 3.2534366 255
-25.142012 1.3024406 3.425631 255
-24.58744 1.2940865 2.9721103 255
-25.151375 1.295372 3.1539247 255
-24.567583 1.2768593 2.4529705 158
-24.808796 1.2641907 2.5303411 255
-25.373592 1.2763634 2.7123661 106
-24.602793 1.2737808 3.4504566 255
-25.00584 1.2790794 3.5807886 255
-25.327999 1.2731972 3.684741 12
-24.321333 1.2837868 2.6318405 1
-24.642065 1.282505 2.7397265 255
-25.043587 1.2908325 2.8751123 255
-25.364584 1.2867508 2.9832208 29.5
-24.407635 1.2881203 2.93924 7
-25.128294 1.3082962 3.1882133 255
-24.521406 1.2919121 2.7388799 146.5
-25.081285 1.2968864 2.9303551 255
-25.321512 1.3012047 3.0127187 132
-24.526558 1.2923775 2.5570884 255
-25.090744 1.3062935 2.7364891 255
-25.331875 1.2930489 2.8129642 56.5
-24.724991 1.2973633 3.6094055 255
-24.966648 1.3046227 3.6867568 32
-24.353678 1.2884712 2.8580408 8
-25.080164 1.3088188 3.0855422 255
-25.402245 1.2924652 3.186017 7.5
-25.171608 1.2946053 2.474813 167.5
-24.570761 1.2939568 3.2720523 255
-25.297684 1.3019638 3.4986985 98.666664
-24.421568 1.2855949 2.9348679 12
-25.145548 1.3057289 3.1707666 255
-24.486567 1.2960548 2.5378187 242
-24.64706 1.305191 2.5914927 255
-25.207836 1.3009377 2.7787318 236
-24.510464 1.3339348 3.5405033 38
-24.40539 1.2904778 2.4976945 128.5
-24.644199 1.2766876 2.5803242 255
-25.203411 1.2949257 2.7750797 139.5
-24.41584 1.2891159 3.4987264 128.5
-24.378803 1.314888 3.1672084 2
-24.616884 1.2978363 3.2507899 255
-25.174072 1.3015594 3.4481046 255
-25.412901 1.3005028 3.5328 17.5
-24.549282 1.3067322 2.5783262 171
-25.025776 1.3002434 2.747865 255
-25.264542 1.3070335 2.8331764 137.5
-24.538355 1.2920189 2.4095278 171.33333
-24.93684 1.2935944 2.5472131 255
-25.176395 1.3033409 2.6302691 255
-24.390387 1.281105 3.3545594 12
-24.629515 1.2959099 3.4379249 255
-24.592703 1.2883263 2.4287901 173.33333
-25.313337 1.3111191 2.6707249 130.5
-24.454473 1.3034973 3.3762932 255
-24.693602 1.2920914 3.4562531 255
-24.452263 1.2928696 2.7692537 131.5
-25.01189 1.2966843 2.957756 255
-25.252108 1.3033638 3.038981 134.5
-24.477888 1.2970581 3.0462914 134
-25.279226 1.3100128 3.3131502 133.5
-24.50345 1.3007698 3.2484028 174
-25.30439 1.3062668 3.5162625 131
-24.48366 1.289875 2.581387 255
-24.64377 1.2911034 2.6350992 255
-25.284748 1.2987099 2.8505864 56
-24.58536 1.3122139 3.6103585 147.5
-24.655701 1.2933311 2.5677741 255
-25.138998 1.3038101 2.7220197 255
-24.450075 1.2678146 3.4901559 2
-25.094357 1.3023109 3.6975505 3
