# .PCD v0.7 - Point Cloud Data file format
VERSION 0.7
FIELDS x y z intensity
SIZE 4 4 4 4
TYPE F F F F
COUNT 1 1 1 1
WIDTH 501
HEIGHT 1
VIEWPOINT 0 0 0 1 0 0 0
POINTS 501
DATA ascii
-4.5693431 -6.9138308 -0.84309858 0
-4.6127195 -6.9756508 -0.26174247 1
-4.5390453 -6.9322338 -0.71927917 1
-4.6227455 -6.9760818 -0.58794606 255
-4.654108 -6.9605064 -0.54526281 255
-4.5863495 -6.9274187 -0.92312121 37
-4.5504265 -6.9718256 -0.65094364 151
-4.5690141 -6.9624453 -0.88558865 40
-4.5742345 -6.9538212 -0.75398326 45
-4.5700474 -6.9409285 -0.62204975 57
-4.5656958 -6.9524279 -0.48467451 255
-4.5519381 -6.9602604 -0.82317525 25.5
-4.5488186 -6.9418268 -0.63325477 39
-4.5590792 -6.9368296 -0.50842851 75
-4.6040506 -6.9269152 -0.85814679 14
-4.598299 -6.9077797 -0.73091811 27
-4.6079125 -6.907011 -0.54045796 29.5
-4.5628285 -6.9326119 -0.9515962 35
-4.560596 -6.9728527 -0.8166706 17
-4.5618577 -6.9510612 -0.62914431 140.5
-4.5603166 -6.9566612 -0.43718737 213
-4.6055489 -6.9064779 -0.85292727 30
-4.6162353 -6.9047546 -0.66369158 55.5
-4.6078906 -6.893425 -0.40864891 255
-4.6266484 -6.9783163 -0.89803231 9
-4.6156812 -6.945591 -0.76915467 23
-4.6218324 -6.9395189 -0.57787794 28
-4.6275072 -6.9330626 -0.38815886 42
-4.5705433 -6.9791651 -0.89230394 21
-4.5746784 -6.9505982 -0.70234305 42
-4.5656796 -6.9559431 -0.50437969 202
-4.5791082 -6.9639454 -0.90042096 21
-4.5868025 -6.952785 -0.77449054 38
-4.5840464 -6.9513712 -0.57900429 29.5
-4.5662165 -6.9744382 -0.86422133 28
-4.5890732 -6.9523306 -0.74372566 51
-4.5726638 -6.9768324 -0.54350805 38
-4.5763636 -6.9988704 -0.63838118 44
-4.5385962 -6.9558816 -0.48077643 255
-4.6557345 -6.9318757 -0.99063009 11
-4.5758672 -6.9740682 -0.71447194 23
-4.5552597 -6.9628487 -0.57508552 255
-4.5350008 -6.9530196 -0.60536551 46.5
-4.6165605 -6.9439368 -1.0116469 12
-4.669662 -6.9588661 -0.96012676 10
-4.6333303 -6.9776745 -0.97859567 10
-4.6541038 -6.9708586 -0.97280538 11
-4.5206194 -6.9372306 -0.3807964 255
-4.5565748 -6.939775 -0.84648496 16
-4.6828008 -6.9664907 -0.95569313 11
-4.5552602 -6.9241042 -0.52391326 225
-4.6484356 -6.9716525 -0.92492878 11
-4.6315708 -6.9398298 -0.92598891 10
-4.5667124 -6.9613409 -0.92335367 12
-4.5416293 -6.9578004 -0.76231629 22
-4.5431552 -6.9409618 -0.6299811 35
-4.5371504 -6.9484663 -0.42779726 39.5
-4.6271029 -6.9646959 -0.66833681 38
-4.6135869 -6.9944801 -0.79590023 9
-4.6182218 -6.9926329 -0.53522146 34
-4.6130633 -6.9759512 -0.40427464 172
-4.5416665 -6.9375262 -0.70320642 36.5
-4.5285954 -6.943778 -0.50609958 255
-4.5315599 -6.937603 -0.37790126 255
-4.5776377 -6.9685054 -0.79201519 33
-4.5922732 -6.9629622 -0.60605389 46
-4.5863333 -6.9643307 -0.41633627 43
-4.5735579 -6.9806237 -0.28840977 23
-4.5547028 -6.935595 -0.81212938 5
-4.5553317 -6.9326482 -0.68975985 10
-4.5652432 -6.912509 -0.50795126 134
-4.5570459 -6.9184966 -0.32647043 255
-4.557673 -6.9188056 -0.20646603 255
-4.5792356 -6.9928594 -0.76158589 15
-4.5776448 -6.9836111 -0.57828951 140.5
-4.5772772 -6.9778709 -0.33675331 255
-4.5497642 -6.9673266 -0.47397754 28
-4.5467415 -6.9669609 -0.11439157 45
-4.5844526 -6.967916 -0.72838366 3
-4.6225243 -7.0114937 -0.4070949 255
-4.6402206 -6.9769783 -0.43085647 255
-4.599472 -6.9895058 -0.44436884 49
-4.5914736 -6.9842224 -0.75444567 255
-4.5443783 -6.9384308 -0.7490533 60
-4.5565224 -6.9412174 -0.8788693 13
-4.5245132 -6.9357448 -0.71170199 45
-4.5685549 -6.9163256 -0.81045175 32
-4.5650511 -6.9112539 -0.78556532 21
-4.5834913 -6.96626 -0.62003756 29
-4.5849471 -6.9583292 -0.46187481 57
-4.5738106 -6.942708 -0.30345979 176
-4.5567331 -6.943471 -0.7749241 44
-4.5561376 -6.9435015 -0.54082179 46.5
-4.5468216 -6.9396248 -0.30698174 255
-4.5579653 -6.9407773 -0.92419523 34
-4.5457468 -6.9369311 -0.86635602 54
-4.5358357 -6.9493108 -0.63931 144.5
-4.5507312 -6.9492311 -0.41447997 153
-4.5408759 -6.9321074 -0.26357955 50
-4.5251889 -6.9419079 -0.22759147 29
-4.5403986 -6.9598031 -0.78782141 36
-4.5394874 -6.9503355 -0.48861051 38
-4.5411921 -6.9583807 -0.82496834 36
-4.5464091 -6.9612565 -0.22775799 26
-4.5492029 -6.929019 -0.88591808 0
-4.54913 -6.9196591 -0.58565474 2
-4.5722404 -6.918941 -0.43700525 0
-4.5698361 -6.9213138 -0.8788619 3
-4.5820513 -6.9400711 -0.42337906 0
-4.5680842 -6.9100547 -0.86901498 0
-4.6162863 -6.8833089 -0.87752521 10
-4.6252747 -6.9831142 -0.80995125 16.444445
-4.6006341 -7.0168009 -0.79885238 6.25
-4.6361308 -6.898561 -0.84350401 0.33333299
-4.5914011 -6.9514732 -0.26115918 2
-4.6031704 -7.0074444 -0.2094962 82.5
-4.5759773 -6.9731531 -0.42145714 62.083332
-4.6370773 -6.9598937 -0.33215022 17
-4.6648712 -6.9363146 -0.5012126 34
-4.6574745 -6.9443407 -0.48140574 5
-4.5971298 -6.9923763 -0.36370385 255
-4.6215286 -6.9115524 -0.61787975 255
-4.5740471 -6.9903145 -0.98591566 11
-4.6648254 -6.9804192 -0.44667685 211
-4.6182938 -6.9211273 -0.67867649 19
-4.6445465 -6.9585686 -0.98185754 7
-4.6377487 -6.9850922 -0.72192913 17
-4.6614189 -6.9378433 -0.76708549 10
-4.6565742 -6.9721031 -0.28069538 255
-4.6587982 -6.979084 -1.0111269 23
-4.5619164 -6.9683609 -1.0987113 2
-4.5864792 -6.9917221 -0.97366726 4
-4.5985298 -6.9973221 -0.52803606 187
-4.6293907 -6.9555931 -1.0537435 7
-4.6116982 -6.9978485 -0.85419077 30
-4.6392345 -6.9518814 -0.43442672 255
-4.6190758 -6.9856033 -0.84975505 34
-4.5418072 -6.9226265 -0.98505288 54.5
-4.6156425 -6.9614372 -0.71873558 255
-4.5923977 -6.9591103 -0.9339304 34
-4.6241169 -6.9610558 -0.331375 4
-4.6166058 -7.0163193 -0.7759763 9
-4.6420898 -6.9585152 -0.8557322 31
-4.6774044 -6.961689 -0.99392509 25
-4.6440964 -6.9875946 -0.80464697 27
-4.6822681 -6.9807587 -0.97311807 20
-4.6055126 -6.9897766 -0.54178786 255
-4.6502666 -6.9904251 -0.79123998 34
-4.6341972 -6.9859428 -0.39315212 255
-4.634613 -7.0009995 -0.2567268 4
-4.677803 -6.9828262 -0.62818706 255
-4.6305447 -6.9910583 -0.69122005 255
-4.6250286 -6.99646 -0.62151814 255
-4.6170349 -7.0105629 -0.38240719 255
-4.6363659 -7.0069046 -0.31644195 255
-4.671217 -6.9773102 -0.32148278 45
-4.643692 -6.9979324 -0.604761 255
-4.6412563 -6.9952888 -0.55071485 255
-4.6749439 -6.9693489 -0.75934029 12
-4.6047535 -7.0164871 -0.65727293 148.5
-4.5974102 -7.0009117 -0.31213021 255
-4.6059246 -7.0037918 -0.42251337 255
-4.638834 -6.9967995 -0.28977126 255
-4.6510658 -6.9645462 -1.0000248 19
-4.6551952 -6.987915 -0.90779054 56
-4.6215439 -7.0133781 -0.6229223 255
-4.6073589 -7.0187912 -0.40972054 255
-4.6054573 -6.9911804 -0.33306265 164
-4.6271496 -6.9716148 -0.72174883 29
-4.6014404 -6.9672813 -0.78417945 14
-4.6131611 -6.9766579 -0.3787514 255
-4.6528511 -6.967308 -0.91523004 26
-4.6212273 -7.0076981 -1.0315398 19
-4.6738319 -6.9712372 -0.90013087 23
-4.6523304 -6.9734535 -0.63326347 255
-4.6122055 -6.9747849 -0.97646153 20
-4.6095276 -6.9853554 -0.80379021 29
-4.6783028 -6.9901428 -0.97908866 15
-4.6540451 -6.9644928 -0.37999225 255
-4.6417503 -6.9878769 -0.48020637 255
-4.6166801 -7.0124779 -0.52320516 255
-4.6310635 -7.0030212 -0.79730129 30
-4.6621876 -6.965538 -0.79571724 32
-4.6256485 -6.9913483 -0.7583766 63
-4.6880016 -6.982357 -0.90351832 69
-4.6685696 -6.9836082 -0.26852012 128
-4.6122913 -6.9748611 -0.249856 255
-4.5896082 -7.000267 -0.46439123 29
-4.6405382 -7.0013924 -0.62197274 25
-4.5938263 -6.9927597 -0.1456269 255
-4.6121559 -6.9794884 -0.65458602 18
-4.5779724 -6.9819984 -0.62666553 24
-4.5770802 -6.9706879 -0.68818945 255
-4.6071596 -6.9480515 -0.35581827 29
-4.5923777 -6.9208298 -0.46723419 30
-4.5950871 -6.9899254 -0.7212581 255
-4.6427121 -6.9390755 -0.61516559 8
-4.5775743 -6.9387169 -0.42563891 255
-4.5932021 -6.9920998 -0.044878151 4
-4.5565243 -6.9686813 -0.56446481 35
-4.5793018 -6.9609756 -0.3033888 255
-4.6598587 -6.987484 -0.80037868 5
-4.565753 -6.9617043 -0.14831194 255
-4.5409775 -6.9288063 -0.67262733 37
-4.6148872 -6.9798241 -0.3042222 10
-4.586525 -6.9406853 -0.35356379 255
-4.5653257 -6.985981 -0.41924056 255
-4.6379023 -6.9746666 -0.84679592 5
-4.5539784 -6.952034 -0.7848407 44
-4.5799212 -6.9360008 -0.59332311 106.5
-4.5286274 -6.9351845 -1.0030806 13.5
-4.5521755 -6.9357548 -0.93525457 30
-4.5648184 -6.9663029 -0.7063697 38
-4.5733552 -6.9608917 -0.71926683 29
-4.5475297 -6.9676533 -0.62256438 255
-4.5508394 -6.9460392 -0.48476031 255
-4.555294 -6.9621296 -0.69146675 38
-4.6168003 -6.966917 -0.641675 3
-4.6785259 -6.9841957 -1.0111421 3
-4.5500689 -6.9195137 -0.71398336 31
-4.6384125 -6.918251 -0.95583856 15
-4.5776901 -6.8965721 -0.42215002 255
-4.5400782 -6.9455166 -0.23406082 12.5
-4.5305309 -6.9381123 -0.21075381 76
-4.5421305 -6.9311066 -0.5490613 255
-4.5426559 -6.9605465 -0.4441413 178
-4.5482712 -6.9534073 -0.42150599 255
-4.5945168 -6.9378033 -0.71766722 40
-4.5867796 -6.9293518 -0.63063884 46
-4.583497 -6.9313164 -0.63059318 255
-4.5890064 -6.949358 -0.46167681 127.5
-4.5600424 -6.952528 -0.65925735 41
-4.6067677 -6.973135 -0.56945705 15
-4.5750713 -6.9706898 -0.88224059 22
-4.5837822 -6.9697495 -0.40635258 26
-4.5805368 -6.9827099 -0.49236232 14
-4.5527925 -6.9596748 -0.77775061 36
-4.5924654 -6.945612 -0.7383464 24
-4.5355444 -6.9454069 -0.28393352 28
-4.5399179 -6.9567432 -0.33038676 49
-4.5331869 -6.9419656 -0.76708955 13
-4.535984 -6.9259286 -0.59270966 56
-4.6024632 -6.9119854 -0.66249573 106.16666
-4.6051383 -6.9085159 -0.35592306 184.5
-4.5605903 -6.9401116 -0.61916709 107.55556
-4.5971398 -6.9774375 -0.81575263 27
-4.585217 -6.9338112 -0.22295654 49
-4.5976572 -6.9912977 -0.7295174 10
-4.5343046 -6.9518728 -0.34246081 43.333332
-4.5976067 -6.9892955 -0.85653704 28.25
-4.5582132 -6.9677219 -0.58794636 67.25
-4.5664339 -6.9496603 -0.81991357 25.666666
-4.5791578 -6.9471989 -0.37814325 133.83333
-4.6489964 -6.9558291 -0.86585164 29.25
-4.586133 -6.9631786 -0.51607323 94.777771
-4.5694566 -6.951437 -0.8722468 30
-4.5775084 -6.9405384 -0.4773103 171.94446
-4.5771427 -6.9519434 -0.47133663 142.13889
-4.5550823 -6.9647675 -0.58535981 150.83333
-4.5791798 -6.9454794 -0.55529243 106.08333
-4.5811472 -6.9147596 -0.51271045 194.41667
-4.577877 -6.9204416 -0.95386618 19.625
-4.5953383 -6.9253383 -0.58163786 185.5
-4.5926328 -6.9191689 -0.32235211 227.75
-4.5448351 -6.953557 -0.6327197 59.977772
-4.6012583 -6.9281602 -0.32710874 35.75
-4.5878868 -6.9500785 -0.35647106 163.25
-4.5804038 -6.9696913 -0.42021337 243.83334
-4.5617442 -6.9724493 -0.60798585 136.22221
-4.5588121 -6.9526291 -0.35199472 255
-4.6087251 -6.9561958 -0.89672029 30.333332
-4.5846415 -6.9684663 -0.62614995 96
-4.5553927 -6.9447207 -0.87685788 27.277779
-4.5858126 -6.9709082 -0.55300164 198.75
-4.5638852 -6.964426 -0.42322981 218.8889
-4.5883317 -6.9824238 -0.37361974 173.25
-4.5504661 -6.924562 -0.45223099 45
-4.538208 -6.928627 -0.56702131 250.5
-4.6018209 -6.9612141 -0.79833651 36.074074
-4.5736246 -6.9502745 -0.51639158 41
-4.5672688 -6.9608712 -0.46309441 240.77777
-4.5507064 -6.9668307 -0.9091742 26.666668
-4.5635242 -6.9567609 -0.57474923 185.83333
-4.5678673 -6.9484215 -0.30539545 255
-4.5528584 -6.9220133 -0.96010429 19.142857
-4.5584908 -6.9410052 -0.68948025 28.833334
-4.5548639 -6.9655142 -0.54185516 97.111115
-4.5506883 -6.9736581 -0.26624566 32.333332
-4.5670819 -6.953567 -0.55405688 115.66666
-4.5497355 -6.9679246 -0.27382064 37.5
-4.5382624 -6.9555655 -0.3185674 255
-4.5569544 -6.9619026 -0.52051228 87
-4.5594268 -6.9587479 -0.49370575 161.22223
-4.5768604 -6.968648 -0.24751464 0
-4.6335831 -6.9614544 -0.85567963 31.033333
-4.591053 -6.9555945 -0.63460565 23
-4.5855737 -6.9435387 -0.94370073 20.511904
-4.5441942 -6.9355588 -0.92134172 24.775
-4.5775743 -6.9743977 -0.72319335 42
-4.5887828 -6.949656 -0.81345856 28.74074
-4.6560817 -6.9568062 -0.8648454 17.545456
-4.5452766 -6.945447 -0.36641169 116.33334
-4.5352974 -6.9503598 -0.34069347 255
-4.6920557 -6.9777703 -0.98052251 13
-4.6299543 -6.9144807 -0.98336321 12
-4.5677595 -6.9650731 -0.61529499 80.75
-4.5490608 -6.9658442 -0.26566255 27.333334
-4.5915804 -6.9529099 -0.96729028 23.200001
-4.6035972 -6.9822583 -0.83117831 12
-4.549511 -6.9703374 -0.26608855 23.75
-4.5955129 -6.9732094 -0.82204831 30.333334
-4.5777731 -6.9637289 -0.54488772 206.5
-4.5578246 -6.9627371 -0.33455938 255
-4.5820332 -6.9551072 -0.96342152 22.666666
-4.5945258 -6.9707184 -0.87615907 19
-4.5383973 -6.9589901 -0.46203786 255
-4.5479641 -6.9567294 -0.33083278 255
-4.5573893 -6.9662728 -0.91859853 40
-4.5504026 -6.9716864 -0.92158604 51
-4.559073 -6.9610972 -0.52323961 40
-4.5511212 -6.9731407 -0.38660705 141.5
-4.5595646 -6.9677386 -0.93099225 40
-4.6362257 -6.9438686 -0.81760609 30
-4.5481558 -6.9692764 -0.59467715 43.416664
-4.5752406 -6.9634399 -0.7732327 59.625
-4.5860281 -7.0102358 -0.90841734 12
-4.6214309 -6.9409828 -0.82348907 28
-4.5447145 -6.9632177 -0.64173055 147.08334
-4.5458488 -6.9652581 -0.3735871 106.83334
-4.6382308 -6.9130898 -0.83546889 19.5
-4.6227036 -7.012897 -0.8954035 23.083334
-4.5644035 -6.9739261 -0.81175172 29
-4.542819 -6.962503 -0.53822041 255
-4.5568748 -6.9531484 -0.3407886 166.5
-4.5802698 -6.9058208 -0.91618764 25.450001
-4.5702949 -6.9718342 -0.57440466 172.72223
-4.567956 -6.9675322 -0.30420816 39
-4.5914888 -6.9552841 -0.71262801 36.75
-4.5836558 -6.9272928 -0.95722806 26.1
-4.5864949 -6.9959931 -0.62038171 169.5
-4.5859261 -6.9837022 -0.35213262 250.66667
-4.5836115 -6.9840736 -0.86570144 31.0375
-4.6130595 -6.9817095 -0.46975157 48.166664
-4.6158218 -7.002686 -0.77560407 74.708328
-4.6111045 -7.0046115 -0.43799716 39.5
-4.552793 -6.9550724 -0.7821905 89.430557
-4.6000419 -6.9236264 -0.91636503 25.166668
-4.5752497 -6.9739137 -0.50098121 134.75
-4.625021 -6.9325676 -0.94830346 14
-4.6486025 -6.9776773 -0.95711112 10.333333
-4.6589174 -6.9238343 -0.93606675 19.666666
-4.5231237 -6.943378 -0.34629688 108.5
-4.5246811 -6.9404902 -0.68551916 76.291672
-4.5477686 -6.953095 -0.75962985 22.75
-4.5222216 -6.9350529 -0.34697193 255
-4.5253153 -6.9443169 -0.68450677 67.75
-4.5313053 -6.9446664 -0.59650648 57.875
-4.5292296 -6.9389896 -0.25899747 38.5
-4.5317688 -6.9519339 -0.57998174 70.833328
-4.5268064 -6.945477 -0.5817948 66
-4.5387163 -6.9527316 -0.61825126 147.66666
-4.5321236 -6.9410415 -0.64327168 138.125
-4.5294976 -6.93362 -0.30435282 255
-4.5408063 -6.9424229 -0.6962961 44
-4.5343599 -6.938024 -0.35520849 153
-4.6476116 -6.9305716 -0.82913709 20.611111
-4.6264639 -6.9119945 -0.83407521 23.611111
-4.5688667 -6.9181228 -0.85424399 29.833334
-4.6077328 -6.9284444 -0.82962036 27.549999
-4.6096811 -6.9176149 -0.83928192 23.863636
-4.5914459 -6.8976083 -0.84754038 24.1
-4.6092625 -6.9051228 -0.86386055 26
-4.5630379 -6.9384441 -0.52404153 182
-4.5207195 -6.9364905 -0.55055779 174.11113
-4.6604395 -6.9905515 -0.94728678 10.5
-4.5837193 -6.8962655 -0.84168261 29.1
-4.6139293 -7.0107365 -0.8424679 24.458334
-4.6045628 -6.899549 -0.83510208 29
-4.6144476 -7.0167012 -0.83468759 31
-4.540338 -6.9323754 -0.41982511 243
-4.644537 -6.9682026 -0.94577599 10
-4.5373087 -6.9342041 -0.58567965 151.25
-4.5202084 -6.940177 -0.24733374 33
-4.6141586 -6.9811945 -0.94993389 10.333333
-4.5553818 -6.9448643 -0.76697707 35.166668
-4.5401878 -6.9427834 -0.91702688 11
-4.5681472 -6.9255142 -0.7038734 48.25
-4.5612407 -6.9746895 -0.91503847 16.700001
-4.6516237 -6.9518785 -0.67386603 89.111115
-4.6436849 -6.9458103 -0.34679031 241.33334
-4.5735278 -6.9148259 -0.58197916 122.95833
-4.5628209 -6.9136634 -0.25718468 255
-4.6463094 -6.9580188 -0.6809411 19
-4.563623 -6.9246259 -0.49238044 30.25
-4.5471764 -6.9197316 -0.64185971 25
-4.6089063 -6.9162631 -0.63848984 79.862503
-4.5922766 -6.9050217 -0.27253693 253.25
-4.5390615 -6.9526939 -0.59812963 29
-4.5973105 -6.920125 -0.87666208 8.7142859
-4.613204 -6.9741349 -0.46505821 187.16667
-4.5461392 -6.955143 -0.82159436 12.071428
-4.5884271 -6.94344 -0.71691322 9.9111109
-4.5671802 -6.9777694 -0.35792193 29.333334
-4.5766215 -6.9787951 -0.12020531 39
-4.654273 -6.973712 -0.86419976 2.454545
-4.5785074 -6.963017 -0.66472363 0.83333302
-4.6096802 -6.9569778 -0.33414185 255
-4.6082802 -6.9057789 -0.76869553 10
-4.6138878 -7.0154381 -0.32408261 5
-4.6219902 -6.9817047 -0.3589406 255
-4.6441269 -6.9841347 -0.57029831 255
-4.6574669 -6.9666557 -0.31185979 255
-4.6533813 -6.968792 -0.39699894 255
-4.6551476 -6.9502945 -0.45363712 255
-4.6226921 -7.0076485 -1.0768464 5
-4.6029854 -6.9793701 -0.64471114 149
-4.6667137 -6.9657555 -0.49293041 255
-4.6518631 -6.9915924 -0.81251651 16
-4.5806313 -6.9903412 -0.49242216 255
-4.6459999 -6.9885521 -0.70960855 255
-4.6404324 -6.9309311 -0.4325186 255
-4.6166725 -6.9372864 -0.54451334 255
-4.5959911 -6.9572716 -0.54072249 255
-4.5826721 -6.8953514 -0.54490513 255
-4.6095762 -6.9763298 -1.0785006 19
-4.6041574 -6.9840775 -0.49446172 255
-4.6194892 -7.0106964 -0.84677756 17
-4.5538154 -6.962738 -0.18853769 255
-4.6063719 -6.9192848 -0.77301615 1
-4.6558251 -6.9609299 -0.75449318 255
-4.6074162 -6.9336166 -0.26588637 255
-4.6392388 -6.9661903 -0.93550485 22
-4.5712514 -6.9597969 -0.8892917 15.5
-4.568789 -6.969059 -0.38342094 255
-4.661694 -6.9356499 -0.70598686 145
-4.6006169 -6.9745789 -0.94570059 28.666666
-4.6137066 -6.9337616 -0.65304863 49.5
-4.5882835 -7.0136108 -0.62748235 255
-4.5752859 -6.9828529 -1.0443863 26
-4.5989571 -6.9758835 -0.42222634 4
-4.5863323 -6.914093 -0.53244972 255
-4.6091285 -6.9985638 -0.74927843 53
-4.5713558 -6.9979458 -0.25672984 122
-4.5928383 -7.0074043 -0.84721494 26
-4.6520824 -6.9997768 -0.53884524 128.5
-4.5962505 -6.9718132 -0.96056151 40
-4.5644035 -6.946888 -0.43838763 255
-4.6414089 -6.9976711 -0.44863367 3
-4.6116867 -6.9807739 -0.79461211 38
-4.6385717 -6.9777927 -0.29529041 146
-4.5789995 -6.9926777 -0.56732124 7
-4.579586 -6.9391179 -0.85958564 48
-4.5770683 -6.9406071 -0.7260341 146.25
-4.5780172 -6.9110651 -0.33708316 255
-4.5571556 -6.9406238 -0.72135818 144.875
-4.5655375 -6.9063368 -0.34804353 255
-4.5533104 -6.9546204 -0.68811899 146.5
-4.550025 -6.9330511 -0.31884986 255
-4.567091 -6.905654 -0.90778416 24.666666
-4.55229 -6.9221578 -0.54898584 143.5
-4.5438519 -6.9361076 -0.76113319 30.5
-4.5693464 -6.9205971 -0.31812045 255
-4.617352 -6.8760366 -0.86286992 28.333334
-4.6181359 -6.8758454 -0.54774988 148.75
-4.5528002 -6.9394317 -0.87233758 24.5
-4.54498 -6.9493661 -0.46458083 248
-4.6058526 -6.9152498 -0.8465662 20.416668
-4.5679202 -6.9079971 -0.45324481 192.75
-4.5384483 -6.9253559 -0.49430028 147.5
-4.5578585 -6.9354076 -0.84969389 15
-4.5342765 -6.9492579 -0.77379912 33.5
-4.5379543 -6.9454374 -0.69464421 36
-4.540329 -6.9259095 -0.357126 255
-4.544961 -6.9264779 -0.72431529 27.5
-4.5466614 -6.9368439 -0.47399431 65
-4.5558052 -6.9174485 -0.71841621 31.5
-4.5719466 -6.9267006 -0.93542773 18
-4.5838566 -6.9821415 -0.77896309 30.208334
-4.5552583 -6.9605408 -0.46282116 104.5
-4.5682497 -6.9801373 -0.84922647 30.6
-4.5578461 -6.9424419 -0.46763533 179
-4.5323424 -6.9415731 -0.56348062 137.66667
-4.5484047 -6.9386196 -0.26384383 25
-4.553906 -6.9229054 -0.79016644 34.541668
-4.570425 -6.932168 -0.418199 109.75
-4.535634 -6.9308438 -0.69352883 82.5
-4.5464668 -6.9208708 -0.39538696 255
-4.5684333 -6.9290395 -0.82843959 40
-4.5793514 -6.9267659 -0.53085434 120.66666
-4.5380507 -6.9442687 -0.62193 101.25
-4.534996 -6.9415107 -0.32220176 41
-4.5808558 -6.9503589 -0.86534816 21.25
-4.5466113 -6.9276757 -0.70448458 24.25
-4.5495381 -6.9482999 -0.50194818 2
-4.6462836 -6.9590158 -0.82671428 4.6190481
-4.530283 -6.9378357 -0.58263063 2
-4.5387311 -6.927774 -0.35642847 10.833333
-4.5412588 -6.9322467 -0.57561481 0.25
-4.52845 -6.9458628 -0.56947219 0.72222197
-4.5328698 -6.9305744 -0.86404634 0
-4.5954113 -6.9564323 -0.72003317 0
