# .PCD v0.7 - Point Cloud Data file format
VERSION 0.7
FIELDS x y z intensity
SIZE 4 4 4 4
TYPE F F F F
COUNT 1 1 1 1
WIDTH 1408
HEIGHT 1
VIEWPOINT 0 0 0 1 0 0 0
POINTS 1408
DATA ascii
-24.806881 1.3365979 0.75138807 5.9430561
-24.703709 1.3187156 0.77620482 3.9902599
-24.846956 1.4290686 1.0443672 0
-24.729124 1.3053885 1.9506136 2.132143
-24.798676 1.4869864 0.12137216 9
-24.912935 1.3998044 0.44303349 1.733333
-24.827536 1.3271062 0.43865672 7.3177052
-24.916412 1.4010901 0.8288464 1.555555
-24.832409 1.3276916 0.85491866 5.578825
-24.729939 1.3480668 0.98553479 1.833333
-24.915764 1.3991268 1.1809098 1
-24.875887 1.2912099 1.2584727 4.3662038
-24.779568 1.3119025 1.1828601 3.5
-24.894249 1.3358352 1.5051124 2
-24.823925 1.3217473 1.7109984 2.6057241
-24.813868 1.3224342 2.0972848 2.0055561
-24.809208 1.3925579 0.37431884 1.5
-24.737167 1.3099117 0.39942241 7.4404759
-24.815224 1.409462 0.75486439 1.125
-24.762691 1.3187721 0.7897439 5.4401269
-24.819874 1.413425 1.0656977 0.166667
-24.796795 1.3402319 1.1071767 2.291667
-24.73851 1.3044922 1.6079143 2.6426499
-24.90399 1.3462999 0.43667048 3.86396
-24.782698 1.3208854 0.49541402 1.973333
-24.912617 1.3733513 0.69708753 3.579365
-24.849031 1.3336647 0.82557178 5.2173381
-24.870007 1.3432429 1.2361799 3.879487
-24.867867 1.3393722 1.6599798 2.683217
-24.887211 1.3473477 2.0958128 2.394047
-24.792425 1.3372467 2.1254239 1.213333
-24.901245 1.3502696 2.3426449 3
-24.790552 1.3357561 2.5141442 2.3055561
-24.746649 1.3074768 2.7515688 130.21053
-24.820997 1.31669 0.10047984 0.66666698
-24.834026 1.3052175 0.30812305 4.3885942
-24.705982 1.3149498 0.40365171 2.875
-24.842863 1.4511859 0.65265566 1
-24.833124 1.3644993 0.66358739 4.0055561
-24.844709 1.4564686 0.85741532 1
-24.763168 1.3254855 0.76060796 4.8783331
-24.84573 1.4603724 0.98089176 0
-24.791779 1.3397994 1.1612227 3.3611889
-24.790497 1.3337011 1.5754867 2.272222
-24.799133 1.3237765 2.0016346 2.5196581
-24.723024 1.3107045 2.070178 1
-24.836634 1.339854 2.3048983 3.625
-24.743597 1.3065543 2.4293625 16.132378
-24.771355 1.3411505 -0.02201465 0.30000001
-24.827589 1.4234264 0.24226537 0.875
-24.775141 1.33125 0.27991185 3.6016159
-24.82543 1.4204006 0.65025222 1.75
-24.802143 1.3502691 0.65769279 4.6473222
-24.81695 1.4042749 0.86709261 1
-24.71751 1.3142197 0.71481991 3.2544451
-24.816433 1.4165263 1.0835425 0.91666698
-24.754519 1.3192129 1.0943263 2.9068179
-24.811708 1.4017749 1.457635 1.291667
-24.740585 1.3079126 1.4906204 2.2292931
-24.858696 1.3564775 0.36874008 2.019047
-24.848921 1.3574612 0.68956983 3.7159381
-24.850698 1.3710685 1.0995736 1.67303
-24.887167 1.419719 1.509519 0
-24.878056 1.388166 1.791793 0.34999999
-24.86392 1.3447945 1.9829009 0.47499999
-24.861498 1.3421366 2.3778448 1.446429
-24.854052 1.2735865 2.780498 235.00851
-24.89872 1.2693427 3.1438494 255
-24.838184 1.4086063 0.34692013 1.341071
-24.761341 1.3348191 0.4152115 1.055555
-24.840782 1.3931093 0.68860132 3.7817459
-24.702402 1.3465416 0.80887043 1.5
-24.84333 1.4139378 1.1204853 2.898809
-24.781475 1.353014 1.1833509 3.349206
-24.814281 1.3867333 1.5168386 1.883333
-24.821339 1.3831298 1.9120781 1.771825
-24.765903 1.3235188 1.9250131 0
-24.795698 1.3521404 2.3288972 2.077976
-24.754322 1.3282075 2.1832979 0
-24.737005 1.3416312 2.5064616 0
-24.896067 1.3364356 2.6073451 106.33334
-24.887939 1.30668 2.7699142 255
-24.925938 1.3047018 3.0316565 255
-24.928862 1.3153498 3.20521 255
-24.753649 1.3010197 3.2260153 242.17235
-24.937866 1.3647535 0.34852493 1.8458329
-24.880194 1.2888706 0.36587262 4.7249999
-24.934868 1.3709939 0.75543517 1.979167
-24.87294 1.2841361 0.77335387 4
-24.920444 1.3889639 1.0629494 0.166667
-24.895254 1.3087175 1.0214603 1.666667
-24.896896 1.329967 1.1218121 0
-24.854698 1.2980561 1.0808005 0.125
-24.922651 1.4032681 1.6857352 0
-24.918797 1.3858125 1.8994697 0
-24.930412 1.3602896 2.4437699 0
-24.912003 1.3697085 0.60262638 0
-24.912575 1.3661096 0.81546366 1.4083329
-24.868567 1.3319421 0.87817591 0.63392901
-24.904839 1.4019833 0.23019797 1
-24.923767 1.378212 0.98421818 1
-24.89801 1.3723812 2.4912658 255
-24.878708 1.3947144 2.761941 59
-24.765816 1.304306 3.6049974 255
-24.922077 1.3595505 3.6276164 255
-24.871281 1.3403397 5.6225872 1
-24.88641 1.2981949 6.5028791 1
-24.872669 1.3977699 0.74265754 5
-24.870506 1.3805656 1.745922 3
-24.905716 1.3094559 2.7413492 255
-24.89045 1.3129616 3.7453985 255
-24.828901 1.370163 4.750586 3
-24.82513 1.3579903 5.7543135 3
-24.920666 1.374836 2.499145 255
-24.898327 1.2932091 4.7693243 3
-24.813957 1.3513412 2.3900537 153
-24.767908 1.3425941 3.4106455 255
-24.736734 1.3289948 2.5373292 255
-24.758125 1.3017807 2.3852673 142
-24.819157 1.3605309 2.4642427 255
-24.922802 1.3686676 3.5082567 255
-24.790194 1.3472481 1.7756971 3
-24.902796 1.2955933 2.8145633 255
-24.893398 1.3000069 3.0947659 255
-24.831936 1.3480453 0.21488613 3
-24.812557 1.3551674 1.2384877 2
-24.799679 1.3497772 2.2634878 4
-24.765919 1.34972 4.3224654 2
-24.762165 1.3230247 5.3564315 2
-24.92042 1.3397026 3.0340018 255
-24.867767 1.3441772 0.51726472 5
-24.796585 1.4127007 1.5428901 2
-24.912493 1.316803 2.5854819 255
-24.900343 1.3925591 4.6682425 4
-24.864899 1.3871727 5.7066936 3
-24.928532 1.3669205 0.85287499 3
-24.875669 1.3672447 1.8777835 4
-24.863821 1.3098106 2.9029346 255
-24.913372 1.377346 6.0430613 3
-24.861559 1.3589439 1.8431463 3
-24.801563 1.3193741 6.0157156 2
-24.790941 1.3580017 2.5928259 255
-24.83083 1.3636818 0.88060969 2
-24.925779 1.2951355 2.9829617 255
-24.935509 1.3887329 5.1034861 2
-24.895233 1.3282471 6.1329942 3
-24.935856 1.3715172 0.4291234 5
-24.850359 1.3868332 1.4597015 2
-24.809458 1.3100662 2.4906077 255
-24.824528 1.3172073 3.5481822 255
-24.850199 1.3178787 2.6611984 255
-24.925606 1.3984184 5.9024057 1
-24.842653 1.3350563 0.7058925 3
-24.891754 1.3917542 1.7915621 3
-24.901787 1.322422 2.8501825 255
-24.859632 1.3669357 3.9059672 4
-24.91713 1.3972206 4.9951968 3
-24.814236 1.3158073 0.76671088 5
-24.854713 1.3713303 1.8507334 3
-24.803999 1.3396568 3.9730086 3
-24.852882 1.3685379 5.0649753 3
-24.765987 1.3189659 3.4442987 255
-24.908508 1.369442 3.3318219 255
-24.7803 1.3262024 3.1626663 255
-24.799746 1.310894 0.91191113 4
-24.860754 1.3539162 2.0002627 3
-24.829552 1.3390312 4.133544 3
-24.725479 1.3081207 5.1797581 2
-24.798435 1.3185501 6.269177 2
-24.865324 1.364048 1.8920896 1
-24.748684 1.302166 2.9277635 255
-24.753395 1.3038177 3.0041089 255
-24.935751 1.3286781 1.4033024 1
-24.793104 1.3364677 2.4399104 255
-24.748783 1.336647 3.5072451 255
-24.789474 1.4761543 5.7158918 3
-24.895014 1.3890114 0.88770252 3
-24.912292 1.3500786 4.1144042 2
-24.84602 1.3334274 4.5234609 3
-24.899151 1.3483849 3.1820774 255
-24.86801 1.3562088 2.9273763 255
-24.909105 1.3632393 0.4011333 5
-24.696981 1.325573 2.4867342 255
-24.679855 1.4619064 5.7505841 4
-24.87578 1.348175 1.5241988 2
-24.848194 1.3414459 4.7191057 3
-24.768396 1.3035316 0.25873673 8
-24.81168 1.3414192 1.3521687 2
-24.880352 1.2729874 3.5154743 255
-24.890059 1.3449707 5.6968713 3
-24.772697 1.3191032 6.7556133 2
-24.859612 1.3422432 2.8925624 255
-24.913643 1.3860626 2.1285625 67
-24.749376 1.3750496 3.1657996 255
-24.847105 1.3026199 1.8560553 1
-24.803186 1.337429 3.0696492 255
-24.859118 1.4082947 2.619442 255
-24.749048 1.3203583 5.3318181 3
-24.863989 1.3295746 3.4445035 255
-24.753662 1.3749504 2.350275 255
-24.896957 1.3869514 3.4592953 255
-24.831841 1.3222923 -0.15146315 14
-24.890587 1.3942795 2.033989 2
-24.757124 1.305172 3.0832567 255
-24.869572 1.3669357 3.6547816 255
-24.767365 1.3604622 3.1894407 255
-24.909288 1.358223 2.5118628 255
-24.731014 1.3531036 3.5658937 255
-24.918842 1.3635368 3.6099381 255
-24.871958 1.3255882 -0.15185624 14
-24.883516 1.3314972 3.1191366 255
-24.864635 1.3553696 2.6202955 255
-24.93335 1.3496742 -0.03418332 4
-24.712347 1.3133736 3.1805623 255
-24.746157 1.3306274 2.7546132 255
-24.802721 1.3138809 3.2833729 255
-24.750757 1.3465157 3.2495954 255
-24.727032 1.3367538 2.8144078 255
-24.93437 1.3822746 1.5123632 4
-24.748493 1.3148842 2.5557926 255
-24.902407 1.3183174 2.7941916 255
-24.905382 1.326458 3.8897088 2
-24.907385 1.3544769 1.9139497 3
-24.921667 1.3522835 2.1310227 4
-24.917444 1.3159828 3.2227376 255
-24.884483 1.3370361 3.175282 255
-24.922958 1.3695869 2.0629547 2
-24.82019 1.3215485 3.1304576 255
-24.922047 1.3217621 2.6676288 255
-24.905003 1.3276215 3.7631059 12
-24.922184 1.3727646 0.7550444 3
-24.789322 1.3160019 2.918469 255
-24.740183 1.316391 3.0727403 255
-24.917168 1.3828354 2.1841223 3
-24.900587 1.3351555 3.2755415 255
-24.852335 1.3203049 3.0566096 255
-24.911917 1.3389587 0.65571141 3
-24.770962 1.308815 2.8189356 255
-24.90539 1.3173676 0.65721291 4
-24.867907 1.3084755 2.8454902 255
-24.937637 1.328167 0.70988476 5
-24.910725 1.3452072 0.83073467 2
-24.922993 1.3905182 1.8935877 2
-24.734837 1.3135605 2.9363351 255
-24.932484 1.3655815 1.81865 4
-24.924818 1.3258171 2.910197 255
-24.93325 1.3685226 1.7251318 3
-24.925709 1.3179779 2.8163745 255
-24.854063 1.318531 2.6852849 255
-24.847345 1.3068466 3.7803147 5
-24.836197 1.3191032 2.7947934 255
-24.877024 1.3926926 0.82046139 2
-24.774168 1.3080368 2.9855347 255
-24.912416 1.3322601 0.00421703 3
-24.787176 1.3135834 3.4418945 255
-24.92823 1.3144264 2.9186628 255
-24.928234 1.3760529 1.9658751 2
-24.829409 1.3143883 3.0330024 255
-24.840921 1.3705711 3.8117449 2
-24.922771 1.3187408 2.6146469 255
-24.913319 1.3306694 3.7105064 13.5
-24.881018 1.3646126 0.39089155 2
-24.865681 1.3190041 2.5803609 255
-24.902124 1.2913589 0.29552805 3
-24.867348 1.3104744 2.4840655 255
-24.862082 1.3263054 3.5800443 255
-24.77705 1.3053017 2.4786963 255
-24.767456 1.3281822 3.5754504 255
-24.815536 1.3145332 2.5602694 255
-24.910633 1.3215294 3.6794195 22
-24.938347 1.3935699 1.5386555 3
-24.858433 1.3126335 2.6064847 255
-24.811007 1.3157196 2.6508803 255
-24.902678 1.3408318 3.7707076 5
-24.906656 1.2942429 0.62463039 2
-24.860842 1.3366547 3.2293663 255
-24.706593 1.3335304 3.2258067 255
-24.933756 1.3646965 0.45178652 3
-24.908136 1.3470764 2.6401653 255
-24.85421 1.3718872 1.4990566 1
-24.846346 1.3147469 2.5958459 255
-24.897373 1.3292694 3.7150104 55.5
-24.910097 1.3375244 0.73877621 6
-24.866056 1.3314743 2.7263432 255
-24.781757 1.3349724 3.2707059 255
-24.758585 1.3371086 3.382884 255
-24.930607 1.4076385 0.43166423 1
-24.810034 1.3872261 2.872093 255
-24.797567 1.3414917 2.8741646 255
-24.822142 1.3660774 1.9713304 1
-24.775557 1.3044319 2.8774052 255
-24.936996 1.374897 3.9905009 3
-24.792528 1.3564606 2.63096 255
-24.677515 1.3705521 2.6892958 255
-24.766661 1.3808823 3.2859595 255
-24.713013 1.3642807 2.3969822 255
-24.754185 1.3332939 2.7422857 255
-24.828979 1.5074883 2.9352684 255
-24.757183 1.3871384 3.1649106 255
-24.914549 1.3354874 2.6930225 255
-24.724455 1.322998 2.6065695 255
-24.941545 1.4065819 3.6986125 3
-24.80596 1.4074478 3.429966 255
-24.876822 1.3081627 -0.055731889 8
-24.900866 1.2943153 3.1231208 255
-24.887024 1.3490639 4.1962047 3
-24.888607 1.3176613 5.2632294 2
-24.946693 1.4006195 0.45555848 8
-24.887993 1.3665352 2.5418706 255
-24.758413 1.3603401 3.5777545 255
-24.834394 1.3670769 2.4793334 255
-24.831398 1.3057327 4.5983868 2
-24.893749 1.3652458 2.1708305 2
-24.740826 1.3384209 3.1871083 255
-24.946918 1.4415665 3.6241648 255
-24.890202 1.410244 2.9519205 255
-24.921703 1.5253983 5.0477085 2
-24.867638 1.3814278 1.4291714 1
-24.818893 1.3403244 2.4574623 255
-24.759403 1.3398361 3.4873586 255
-24.78561 1.4999161 5.5814385 3
-24.945297 1.3571129 0.01142597 10
-24.90696 1.3561516 2.071207 4.5
-24.75046 1.3507309 3.0740833 255
-24.818207 1.2782707 3.2195163 255
-24.790142 1.3369102 4.2654409 3
-24.774588 1.3259659 3.3922315 255
-24.894611 1.417942 5.5092564 2
-24.900291 1.3433952 2.6376352 255
-24.72143 1.470314 5.7143087 4
-24.787952 1.2902374 1.4120538 2
-24.821695 1.3596039 1.2595384 3
-24.921642 1.3083382 2.2997139 255
-24.741383 1.3019676 3.2860844 255
-24.818569 1.3517647 4.3308954 4
-24.812132 1.359169 5.3670416 4
-24.725807 1.3395348 3.1848392 255
-24.904865 1.3372383 3.2249284 255
-24.914564 1.2815018 6.3350739 3
-24.941854 1.3801003 0.62593997 5
-24.896738 1.3652191 1.6462351 2
-24.675919 1.3431511 2.619802 255
-24.918003 1.4049683 4.7514868 4
-24.663445 1.4762955 5.7489023 2
-24.906172 1.3720398 1.8206576 3
-24.697752 1.3320389 2.7915459 255
-24.905558 1.3752823 5.9357963 2
-24.890617 1.3677826 1.356047 4
-24.924915 1.3353691 2.3898959 255
-24.778603 1.323082 3.3836336 255
-24.884705 1.3850517 4.4358597 3
-24.821972 1.3880844 5.4554529 1
-24.930328 1.3090172 -0.069894083 9
-24.929705 1.3204575 2.9993284 255
-24.862835 1.3572426 4.0152121 2
-24.897326 1.3799324 6.1001873 2
-24.869267 1.3018684 -0.069910049 6
-24.703873 1.3240051 3.9718685 3
-24.785023 1.3900414 6.0397849 1
-24.825861 1.3675003 2.6601491 255
-24.936733 1.3706131 3.7065296 255
-24.758011 1.5325508 5.7503405 2
-24.844313 1.4157372 3.051208 255
-24.820236 1.3275566 3.4892259 255
-24.798595 1.2891541 2.4461803 255
-24.79355 1.3110924 4.4257536 3
-24.876299 1.3440475 5.4293594 2
-24.789036 1.323513 6.4094648 2
-24.886 1.2683563 3.2766137 255
-24.697083 1.309288 5.2349234 3
-24.839188 1.3312531 1.8860185 2
-24.719078 1.3662148 3.8423941 1
-24.840624 1.329361 4.8333788 3
-24.782196 1.3230972 5.8247728 2
-24.91827 1.2958794 0.34365213 4
-24.848373 1.3298759 1.3121232 3
-24.695498 1.3159637 2.2832146 255
-24.888012 1.3322678 3.2844143 255
-24.881458 1.3370438 1.0507853 2
-24.834759 1.3125916 2.0271833 3
-24.904013 1.2714577 3.9981577 255
-24.686764 1.387043 2.4507406 136
-24.665537 1.3978233 3.4289253 89.5
-24.893703 1.2907143 0.4002915 3
-24.781139 1.3065414 1.3599057 3
-24.775442 1.3291283 4.3163676 2
-24.885605 1.4185257 1.8279221 3
-24.946337 1.4357567 3.7982037 2
-24.716255 1.3175125 1.1754054 3
-24.837578 1.2980804 3.166245 255
-24.890568 1.322258 0.77985239 4
-24.87443 1.3233414 3.7143235 12
-24.920696 1.3621292 1.0714782 2
-24.760532 1.3670959 2.0279765 13
-24.929083 1.3746147 2.054503 61
-24.899937 1.2620239 2.494755 255
-24.902018 1.3016243 2.2564638 2
-24.854071 1.2946968 4.1807227 3
-24.790813 1.362854 6.1360006 2
-24.781759 1.3618164 1.7335745 2
-24.86187 1.295372 2.6962276 255
-24.768929 1.3128967 3.6527257 5
-24.844587 1.3476219 4.6346264 4
-24.82493 1.4115105 5.6113896 1.5
-24.832949 1.3016472 1.6339537 3
-24.662823 1.4193535 5.4789724 3
-24.856483 1.317894 4.0291648 23.5
-24.776463 1.3617477 3.2857883 255
-24.844193 1.3958015 5.6519885 3
-24.893097 1.343174 2.4588718 5
-24.81797 1.3161125 4.3610544 2
-24.681984 1.3926735 2.3631625 139
-24.943291 1.4157104 3.3344054 11
-24.791254 1.2975082 -0.1812529 5
-24.698544 1.3294525 3.5699406 255
-24.921225 1.3275528 4.5474019 2
-24.909014 1.3081017 2.5879116 14
-24.896692 1.3799973 5.4263678 4.333333
-24.769745 1.3502731 2.1202483 3
-24.792665 1.3423119 4.0103912 4
-24.801918 1.331028 4.9609194 4
-24.809626 1.3223152 5.9193172 2
-24.709959 1.5103378 5.5695791 5
-24.87262 1.4821434 5.5934086 6
-24.7258 1.3605766 3.1786947 52.5
-24.677227 1.4182739 4.1185045 2
-24.909454 1.3667831 1.4831532 4
-24.852955 1.3096085 2.4169044 255
-24.872585 1.3714676 5.248785 2
-24.899544 1.3476868 6.206655 2
-24.892841 1.333168 2.4138923 255
-24.851929 1.5067062 5.2570596 3
-24.876631 1.3548546 2.1519094 3
-24.857704 1.3552361 4.0195613 3
-24.750168 1.4140358 5.9064298 2
-24.758156 1.2945023 2.3693202 1
-24.787346 1.3366814 1.9713352 3
-24.858614 1.3120461 2.1901786 3
-24.885303 1.322403 5.9816008 2
-24.720615 1.3307877 2.6530581 255
-24.886299 1.2738953 2.5154209 255
-24.823669 1.372818 1.8353368 5
-24.877405 1.3759651 4.7014213 1
-24.847563 1.290905 2.2155967 2
-24.747984 1.309536 1.9020952 2
-24.8904 1.3339233 1.7747111 1
-24.816036 1.3040619 5.8253937 2
-24.927086 1.2836533 2.1966872 3
-24.829182 1.3772964 2.6909347 5
-24.873753 1.2990761 2.9351671 104.33334
-24.712234 1.3890076 1.5625209 3
-24.676287 1.3253021 2.5179539 255
-24.673088 1.3799477 4.4305081 3
-24.862982 1.345871 5.9299793 2
-24.796499 1.4269257 5.3868876 4
-24.878553 1.349144 5.925642 3
-24.86879 1.3397217 3.4256575 24
-24.766638 1.4786377 5.3562131 1.5
-24.727375 1.3300171 2.5444884 8
-24.709288 1.3518791 4.4592967 3
-24.776133 1.3217964 5.4150138 2
-24.685591 1.3584328 6.3895707 2
-24.889174 1.2971001 5.0051327 2
-24.6999 1.3410835 5.9735503 3.5
-24.763889 1.3646736 1.8894908 2
-24.833036 1.3535957 3.7995379 2
-24.794493 1.3821831 4.7652974 4
-24.680134 1.4496193 5.7463856 2.5
-24.803333 1.3480835 2.0402174 4
-24.737007 1.368988 3.9664807 2
-24.902447 1.3011475 3.9395182 2
-24.873278 1.3194542 4.906539 3
-24.850712 1.3287239 5.8763247 3
-24.832951 1.3471985 6.851532 2
-24.666071 1.3517609 5.6440439 6
-24.796585 1.3535957 1.9114995 3
-24.765383 1.3759689 3.8261905 4
-24.75609 1.3890343 4.7863932 2
-24.804596 1.3729401 1.6769369 1
-24.908615 1.3076019 2.6120634 255
-24.760834 1.3457565 5.480329 2
-24.719572 1.3666344 6.4439802 2
-24.789152 1.3634834 2.5019386 255
-24.841312 1.3684998 3.4407086 255
-24.667921 1.3884048 5.3550282 2
-24.785273 1.3354263 6.2914424 2
-24.673372 1.4057732 4.482223 3
-24.70179 1.3884544 6.3699608 2
-24.765944 1.3612099 5.6955805 2.5
-24.908514 1.361454 2.8760037 255
-24.812063 1.4639702 5.7047696 1
-24.747442 1.3863983 1.4238214 2
-24.824083 1.3603745 2.3432412 255
-24.827555 1.3727531 3.2768202 255
-24.662981 1.4466858 4.2220569 3
-24.671602 1.4773331 6.0930181 3
-24.781755 1.4305916 1.9745839 2
-24.856918 1.3597832 2.888773 255
-24.660738 1.4603424 6.6450014 3
-24.725348 1.3230743 0.26280773 4
-24.851767 1.3396454 3.9361548 1
-24.762836 1.3789864 4.8676786 3
-24.875484 1.3736229 4.3043451 1
-24.906017 1.3205643 5.2199521 3
-24.678066 1.3546143 3.1077487 255
-24.684599 1.3953362 4.9470043 2
-24.734615 1.3420868 2.7728963 255
-24.809944 1.3488731 3.683388 255
-24.697765 1.4053764 5.526577 3
-24.656595 1.5344849 6.4690247 2.333333
-24.922653 1.2787056 2.6913197 128
-24.871305 1.375679 3.6074502 255
-24.737535 1.3986015 6.3519392 3
-24.710489 1.3836937 2.0628483 3
-24.727909 1.3337936 2.9591475 255
-24.914213 1.321003 2.956027 255
-24.771986 1.3240738 3.8599591 1
-24.702251 1.4365845 4.7761774 3
-24.656464 1.4376869 5.6860137 4
-24.844555 1.349884 6.5959306 2
-24.740891 1.4406242 2.1974096 1
-24.768852 1.3995209 3.9852717 3
-24.782005 1.3775368 4.8838415 3
-24.660789 1.4449615 5.789722 2.333333
-24.71801 1.3442574 2.165971 1
-24.887403 1.313549 3.0620418 255
-24.721764 1.3647728 3.9536779 1
-24.70908 1.353981 4.8506265 2
-24.705351 1.3562012 5.7542129 2
-24.688469 1.3392715 5.6910119 3
-24.697872 1.3760681 0.67129028 5
-24.701817 1.3946152 1.5547112 4
-24.707157 1.3952789 4.2124987 3
-24.719353 1.4101143 5.1066756 3
-24.708405 1.3924255 6.002687 3
-24.795687 1.3259163 2.3034515 3
-24.830467 1.2752571 3.1826692 255
-24.764137 1.3403587 4.0624595 3
-24.747627 1.3392448 4.9448466 4
-24.740658 1.3511696 5.8333192 4
-24.731333 1.3600044 6.7258272 2
-24.695183 1.4019089 2.2834992 3
-24.68309 1.3530273 3.1564698 255
-24.910492 1.4256516 5.8228931 3
-24.900471 1.3774147 2.4206314 255
-24.930862 1.4328766 6.6145148 3
-24.72802 1.4250946 0.73552144 3
-24.750299 1.3942719 1.6001118 4
-24.752756 1.3243599 2.4619417 255
-24.805344 1.3178482 3.3289299 255
-24.742781 1.4174767 4.2095923 3
-24.793856 1.4085159 5.0852437 4
-24.820639 1.3682632 5.9628282 2
-24.794567 1.4710121 5.6578102 2
-24.716789 1.3738136 6.5245175 3
-24.724401 1.3578453 1.7136294 3
-24.69972 1.3886261 4.3130627 2
-24.756901 1.3255081 6.0508618 2
-24.741566 1.3535576 0.32571554 3
-24.766357 1.3602829 2.0449374 3
-24.915237 1.2782974 2.9029555 255
-24.785152 1.346283 3.764276 4
-24.790285 1.334034 4.6285362 2
-24.821285 1.3528442 5.5005293 1
-24.72559 1.4194412 2.8166094 255
-24.702303 1.4096642 3.6767335 255
-24.727322 1.4596214 6.6047821 2.333333
-24.682709 1.3739777 0.28685772 7
-24.695091 1.4072266 1.9912494 3
-24.677834 1.4159546 4.56775 4
-24.677341 1.4250183 5.4340925 3
-24.759369 1.4115372 6.3022141 2.5
-24.709673 1.4486237 2.690767 255
-24.667398 1.4362793 3.5451038 255
-24.715967 1.3838959 0.3813383 8
-24.684874 1.4000549 2.0800791 4
-24.923571 1.3456039 2.9441156 255
-24.680578 1.4460564 3.7918046 4
-24.67383 1.4641342 4.6522245 3
-24.686804 1.5038681 5.5120254 3
-24.794767 1.4206238 6.3830361 2.666667
-24.903179 1.2804794 -0.28380042 17
-24.71582 1.5258331 3.123384 255
-24.854145 1.2713318 5.2587547 3
-24.858078 1.2902489 6.1309671 3
-24.791115 1.3026314 1.9019634 2
-24.923023 1.2743874 3.6189828 5
-24.798157 1.3934975 4.4751582 1
-24.878204 1.2836838 5.3316059 1
-24.88929 1.3233566 6.2013059 3
-24.762371 1.441124 3.304126 255
-24.768127 1.3290558 4.2511916 1
-24.881416 1.2814445 5.1180339 3
-24.835709 1.3036728 5.9798198 3
-24.767611 1.3183441 -0.09291479 6
-24.721743 1.4225464 1.6042514 2
-24.7335 1.4453087 4.1803546 2
-24.7693 1.4173698 5.9077153 3
-24.707207 1.4542465 1.2650534 2
-24.920784 1.4244003 3.0058293 255
-24.657639 1.4854279 3.8427618 4
-24.743107 1.4519157 4.7204242 2
-24.776409 1.4665909 6.4638247 1
-24.701397 1.4759979 2.5495327 255
-24.764694 1.4400406 3.4218438 170.33333
-24.962784 1.5162792 0.18572943 4
-24.897505 1.3639183 2.800674 255
-24.677233 1.3947983 3.6416306 21
-24.694288 1.4507523 5.3907442 1
-24.781416 1.4459457 6.2858992 3
-24.716099 1.3372192 1.7389002 3
-24.701084 1.3085594 5.2132974 3
-24.668148 1.3799591 6.0894256 1
-24.870369 1.2729034 3.1353779 255
-24.762714 1.3065014 4.0018129 2
-24.698284 1.376318 4.8743858 2
-24.863155 1.333004 5.7809629 4.5
-24.747723 1.3166389 5.7270746 4.5
-24.769459 1.3132401 1.0138775 4
-24.754635 1.3200493 4.5072303 2
-24.766737 1.31633 0.53142822 3
-24.838163 1.2791157 1.4162825 3
-24.773767 1.3445511 2.2819393 2
-24.772909 1.3549919 4.0349531 3
-24.827135 1.3038292 4.9256558 2
-24.769407 1.3645668 5.8034964 5
-24.826128 1.3161335 6.7054939 2
-24.703156 1.3667984 0.54695451 2
-24.748299 1.3520699 1.4205295 2
-24.722874 1.3760777 2.290617 2
-24.855026 1.3241768 3.1739857 255
-24.676601 1.4281387 4.0390429 3
-24.748074 1.4183884 6.7056994 2
-24.879478 1.2792988 1.6647735 1
-24.857914 1.303196 4.307354 1
-24.875916 1.2790623 6.0804157 3
-24.765175 1.349102 0.75142133 5
-24.764458 1.3627644 1.6274054 3
-24.73341 1.3811455 4.2704983 3
-24.737778 1.3989162 5.1517782 3
-24.735466 1.4115696 6.0429001 3
-24.730808 1.3545494 3.11619 255
-24.718365 1.4064217 6.6792521 1
-24.704144 1.3533726 0.89223409 4
-24.674641 1.3885708 1.767771 3
-24.676281 1.3657589 4.4185591 3
-24.728119 1.3696404 0.95455182 4
-24.754494 1.3534794 1.8282293 3
-24.859516 1.2873116 2.7004287 255
-24.801167 1.2938766 3.5774541 255
-24.717606 1.3807468 4.4631376 3
-24.748276 1.3563747 5.3474321 2
-24.782166 1.3341923 6.238523 1
-24.756313 1.3793564 2.2874358 2
-24.763317 1.3938236 4.0500331 2
-24.806637 1.3269463 4.9235601 3
-24.671459 1.4202633 5.8175535 6
-24.897102 1.2947865 6.6991353 2.5
-24.872787 1.3059654 0.62433767 5
-24.86298 1.3558731 1.5108376 3
-24.817444 1.2805119 2.3790994 255
-24.765411 1.2982216 3.2643096 255
-24.887287 1.3638401 4.1516404 3
-24.814972 1.4258118 5.9317136 1
-24.848785 1.294672 3.0702462 141
-24.741272 1.3455067 3.9661095 5
-24.785282 1.3044701 6.6178551 2
-24.740189 1.3547325 0.37397519 9
-24.717236 1.4606934 2.1672611 1
-24.82193 1.3108692 3.0177035 255
-24.737793 1.4014149 3.9307861 4
-24.760696 1.3819714 4.8175244 3
-24.776989 1.3590431 5.7015786 1
-24.677448 1.4396381 6.6237097 2
-24.849695 1.314146 1.1955659 5
-24.876257 1.3086967 2.0734675 3
-24.804651 1.3742199 3.862982 3
-24.857588 1.3811474 4.747149 4
-24.710764 1.427742 5.6554275 2
-24.866137 1.3540688 5.6321731 3
-24.688591 1.4071064 1.9636161 2
-24.796787 1.3653374 3.7158525 32
-24.850819 1.3978081 6.4040546 3
-24.698944 1.3935814 0.18843645 9
-24.702366 1.4033737 1.9208912 4
-24.828178 1.3127537 2.7652392 255
-24.680508 1.401783 4.5248885 3
-24.719448 1.4471874 5.4045243 3
-24.696899 1.4361801 6.2765956 2
-24.723774 1.4025459 1.4640247 3
-24.75927 1.4308319 4.088635 2
-24.67923 1.5177364 4.99263 3
-24.726624 1.4929276 5.8630285 2
-24.686121 1.4395256 1.8782624 3
-24.751917 1.3919086 2.7356882 255
-24.872473 1.3859444 3.5962129 255
-24.660124 1.5070877 5.4130945 1
-24.841644 1.5420418 0.93366349 2
-24.754429 1.386961 2.6327765 255
-24.849236 1.409626 3.4949858 255
-24.65625 1.5106373 6.1287775 2
-24.709162 1.3793526 0.23133639 7
-24.70717 1.381258 1.0792136 3
-24.721678 1.3964214 1.9237391 2
-24.909288 1.3521557 2.7552216 255
-24.881857 1.3471565 3.6056569 255
-24.709848 1.4114876 4.4742503 3
-24.704515 1.4122314 5.3276563 2
-24.719099 1.4267159 6.1891322 2
-24.684757 1.4427757 1.4331539 3
-24.737301 1.4269161 3.0809376 255
-24.682663 1.4471016 3.9130354 1
-24.655125 1.4858379 4.7513237 3
-24.785496 1.5445042 5.6009536 2.5
-24.848026 1.375164 6.4180446 3
-24.84573 1.2900925 1.0226266 2
-24.880836 1.2636986 5.1381373 3
-24.677288 1.3596897 5.9830294 2
-24.856659 1.3048344 5.9804296 3
-24.914997 1.2807999 4.3191032 3
-24.686291 1.5176525 0.21621776 5
-24.76704 1.4296894 3.4476633 255
-24.717613 1.4142056 6.7314463 4
-24.820797 1.3178139 0.61669999 5
-24.786594 1.3808327 1.4266747 3
-24.829666 1.3226833 2.2254477 3
-24.894508 1.2782879 3.0298221 255
-24.86166 1.3411903 3.8482251 3
-24.803596 1.3878803 4.6598067 3
-24.866386 1.341259 5.4727325 1
-24.879669 1.28615 0.75101143 5
-24.861629 1.3023682 2.3429246 3
-24.863846 1.3307953 3.9469762 3
-24.899555 1.2817554 4.7496915 3
-24.85849 1.3531799 5.5664592 2
-24.904247 1.3106155 6.3710318 3
-24.81485 1.3241558 6.3489561 5
-24.776215 1.3410397 0.093680553 7
-24.737389 1.4233131 0.8870542 2
-24.836189 1.3185844 0.87848228 1
-24.754375 1.3835526 1.6689352 3
-24.845757 1.2974606 2.4478416 255
-24.799385 1.2922745 3.2339702 255
-24.77787 1.3856049 4.0334063 2
-24.75626 1.5249615 6.4480405 2
-24.812546 1.32864 0.11955235 9
-24.823128 1.3023205 0.89628601 4
-24.835789 1.2770538 1.6781728 3
-24.81805 1.3419323 4.0288668 3
-24.865604 1.3380089 4.8206458 3
-24.764469 1.5416546 6.423943 2
-24.809971 1.2986889 0.55637264 5
-24.761169 1.3367081 1.3397143 4
-24.751698 1.398283 2.1300795 2
-24.815201 1.3228645 4.4717088 2
-24.76495 1.3599968 5.2655768 3
-24.743172 1.4142628 6.0673385 2
-24.78603 1.2919426 0.22484839 2
-24.709732 1.3988686 4.1166124 4
-24.746582 1.3543606 4.8913231 3
-24.723072 1.4342442 5.6875491 2
-24.885925 1.3017826 6.4795275 2.666667
-24.867386 1.290596 0.017458741 4
-24.846226 1.2915134 0.78947312 6
-24.82695 1.3165245 2.3290148 3
-24.82008 1.3395729 3.8766799 3
-24.867008 1.3000488 4.6522508 3
-24.831089 1.3721638 5.4423628 2
-24.854183 1.3180504 6.2237778 3
-24.805099 1.3142128 0.10517542 7
-24.831097 1.2903099 0.86993903 3
-24.758812 1.3776302 1.6378407 3
-24.723763 1.3186493 2.3966489 16
-24.84362 1.3101387 3.9359117 1
-24.786945 1.397747 4.7132807 4
-24.791412 1.3609848 5.488431 3
-24.814098 1.4144955 6.2783933 2
-24.714367 1.3642712 0.49419591 7
-24.66349 1.3995171 5.0799313 3
-24.728981 1.3492908 6.6300125 3.333333
-24.751373 1.3415394 0.275408 3.5
-24.738796 1.3393307 1.035311 6
-24.75449 1.3536358 1.7924533 2
-24.702984 1.3297615 2.5512347 3
-24.714336 1.3558636 4.0753388 4
-24.748768 1.3023853 4.8350587 3
-24.751205 1.308836 5.6054783 1
-24.741749 1.3084564 6.3783665 3
-24.913429 1.2867794 1.6440768 2
-24.91785 1.2934494 3.9226179 3
-24.714064 1.4111404 0.17613839 11
-24.733076 1.4080963 0.93229008 6
-24.868689 1.4561291 2.454648 77
-24.715639 1.5062714 3.9990468 2
-24.695787 1.4832191 4.7588024 3
-24.705885 1.4762897 5.5255866 3
-24.731749 1.4774017 6.3000946 3
-24.910112 1.4228649 6.2926807 3
-24.919525 1.2516556 4.1898546 3
-24.881477 1.3015041 4.9487553 3
-24.898682 1.3057709 5.701797 1.5
-24.781364 1.322628 3.9595966 3
-24.758518 1.337944 4.7145228 4
-24.76247 1.3669434 5.4758573 3
-24.761749 1.3940372 6.2345862 1
-24.832207 1.2825241 6.2166648 1
-24.724354 1.4902 6.3396306 3
-24.733442 1.3822289 4.806881 3
-24.724504 1.4132137 5.5566745 3
-24.714151 1.443182 6.3100104 3
-24.80472 1.3294849 0.1919084 4.5
-24.793882 1.3496532 0.92563277 3
-24.819536 1.3173695 1.6472876 2
-24.774488 1.3215599 2.3791463 6
-24.918974 1.2765656 3.0988159 255
-24.79212 1.3846645 3.8503883 4
-24.779871 1.4142151 4.5886979 3
-24.811979 1.3856716 5.3203974 1.5
-24.829004 1.3493404 6.0541763 2
-24.694353 1.400301 0.6924125 5
-24.675901 1.4209805 1.4140011 4
-24.667524 1.4460869 2.1410894 3
-24.852819 1.3191719 3.5673783 255
-24.688116 1.4112129 4.3058171 3
-24.665686 1.4296341 5.0381107 3
-24.659941 1.4559212 5.7765436 3
-24.910826 1.4349918 5.7887211 2
-24.743616 1.3823051 6.5083017 2
-24.876913 1.3038464 6.5033154 4
-24.782728 1.360899 0.54000497 6
-24.780928 1.3735504 1.2598696 5
-24.785578 1.3892193 1.9831467 3
-24.719065 1.3161163 3.4110353 186
-24.806391 1.3796349 4.1466656 1.5
-24.844866 1.3420887 4.8659635 1
-24.670008 1.484705 5.6153197 3
-24.792482 1.4869061 6.3572683 1.333333
-24.741749 1.3670378 0.038723741 8
-24.734253 1.4044485 0.75653821 5
-24.827354 1.309041 0.74150306 1
-24.722179 1.4406672 1.4714844 3
-24.786694 1.3317881 1.4560883 2
-24.770676 1.3660154 2.1741908 2
-24.855133 1.30832 2.8772314 255
-24.732525 1.4330969 3.6101747 4
-24.758316 1.4257631 4.3258557 1.5
-24.768635 1.4034739 5.0407877 2
-24.762333 1.3951349 1.2297873 4
-24.744923 1.4129877 1.943542 2
-24.80162 1.2923937 3.3429668 255
-24.777832 1.4460173 4.0819421 2
-24.756054 1.3929014 4.7886424 3
-24.771378 1.4255724 5.5163689 3
-24.771015 1.4505205 6.2480216 3
-24.915897 1.3777838 6.2450547 2
-24.660517 1.4603243 4.6200819 2
-24.658358 1.4711218 5.3423495 3
-24.671852 1.4712019 1.2255079 2.5
-24.817043 1.4022493 3.3686621 255
-24.67971 1.4445066 2.4114239 1
-24.673176 1.4074011 3.1149628 255
-24.761395 1.4102726 3.8302801 255
-24.674168 1.4704647 4.5566115 1
-24.911377 1.4975891 6.0258679 6
-24.852085 1.3087492 6.7040591 1.666667
-24.670864 1.4682474 0.41166657 6
-24.691296 1.4549456 1.1071806 3
-24.696735 1.5003281 1.8176968 1.5
-24.685089 1.3832111 3.2024407 255
-24.699562 1.4969225 3.9313023 4
-24.725502 1.4828663 4.6399174 3
-24.725666 1.5215874 5.3687353 1
-24.696484 1.5545216 6.097157 2
-24.77857 1.3119202 4.5130281 3
-24.715946 1.4274035 1.3588152 2
-24.809155 1.3354254 1.3382802 1
-24.749752 1.370636 2.0372682 1.5
-24.770775 1.3012218 3.4124365 255
-24.741085 1.411787 4.1276526 4
-24.742046 1.4040995 4.8268037 3
-24.713417 1.5118256 5.5582366 0
-24.760715 1.4019165 5.5357499 3
-24.755913 1.4613876 6.2605343 1
-24.745768 1.3620901 0.16486868 8
-24.746485 1.3736897 0.8480525 4
-24.736021 1.3806019 1.5321451 4
-24.751799 1.5252075 2.2432549 1
-24.859758 1.3205357 2.8957715 255
-24.841867 1.3241367 3.581176 255
-24.722048 1.5426483 4.3115649 1
-24.745253 1.4236994 4.2891803 3
-24.745935 1.4955359 5.0029473 2
-24.782976 1.4597759 6.4034629 1
-24.840759 1.2779408 1.6671619 4
-24.877567 1.2675858 2.3442428 2
-24.730106 1.315958 3.0209043 8
-24.866924 1.2788057 3.7018731 4
-24.863457 1.3152924 4.3957572 4
-24.748081 1.346529 5.7710714 1
-24.822971 1.400053 1.2020583 0
-24.82262 1.2997684 1.8604126 4
-24.843925 1.3839407 3.903966 1
-24.882515 1.2719307 3.8866539 2
-24.847733 1.3466358 4.5807834 2
-24.866207 1.3135948 5.2662435 3
-24.866096 1.3433905 5.9641628 2
-24.752439 1.3477888 0.45179045 7
-24.739637 1.370821 1.1209869 4
-24.738295 1.3976536 1.7920785 4
-24.768641 1.3728352 2.4591746 2
-24.808413 1.2884827 3.1192732 255
-24.749788 1.4194279 3.8076615 2
-24.745153 1.3809986 4.4776087 3
-24.833799 1.3124809 5.1562567 0
-24.844744 1.3474646 5.8507719 1
-24.800539 1.3486042 6.5348873 1
-24.733971 1.5588703 2.7077656 255
-24.756653 1.5585852 3.3841486 255
-24.723301 1.3954077 0.26082605 9
-24.817421 1.305439 0.24047537 2
-24.783264 1.3527822 0.91652459 3
-24.726364 1.3919306 1.5915146 5
-24.737747 1.3938751 2.2538042 4
-24.739094 1.3253469 3.5836906 152
-24.752048 1.5117893 3.6227875 1
-24.729275 1.3840599 4.2714572 2
-24.724541 1.3699846 4.9448881 1
-24.743626 1.3694735 5.6285033 1
-24.819149 1.2798071 0.92081904 1
-24.824528 1.285428 4.2835398 2
-24.831203 1.2901449 6.341846 1
-24.782684 1.3203478 0.72050589 5
-24.779774 1.3082981 2.0277359 3
-24.791183 1.4185839 3.3709326 1
-24.779926 1.2880878 4.0070081 4
-24.799866 1.414094 4.0352693 0
-24.801418 1.4078512 4.6963744 0
-24.793289 1.2855864 4.6686211 4
-24.781929 1.3334827 5.3485975 2
-24.844997 1.298584 1.3706776 4
-24.86063 1.277607 2.0142808 2
-24.842411 1.3126516 3.9682989 4
-24.840569 1.3445644 4.6296353 3
-24.873089 1.3263597 5.2934332 1
-24.797276 1.3408842 5.9529119 1.5
-24.839863 1.3339109 0.45175648 7
-24.841778 1.3400726 1.0898507 2.5
-24.857151 1.2905684 1.725934 1.5
-24.861282 1.3563118 2.3740427 1.5
-24.79826 1.2835388 3.00103 134.5
-24.909866 1.3212986 3.6577036 35.5
-24.827694 1.3602142 4.3067608 4
-24.776287 1.4142942 4.9602671 1
-24.87838 1.3265839 4.9610238 1
-24.838787 1.3709888 5.6162062 2
-24.842373 1.4342556 6.2849488 2
-24.891571 1.3307276 6.2784495 1
-24.762379 1.3391333 -0.08591143 5
-24.729897 1.4139605 0.55135709 6
-24.800213 1.316783 0.54633695 1
-24.729515 1.4391088 1.1864127 2
-24.767403 1.4168348 1.8157874 2
-24.683487 1.3583508 2.4434497 135.5
-24.760658 1.4055367 3.0922799 103
-24.772263 1.4399719 3.7381904 1.5
-24.744942 1.4496117 4.379178 3
-24.825481 1.4035721 5.6903615 2
-24.770885 1.4690065 6.3459077 2
-24.904095 1.2652111 0.24052832 3
-24.862156 1.443203 1.5021679 0
-24.85815 1.4169168 2.1300914 2
-24.793949 1.3740664 2.748904 17
-24.870323 1.3678465 3.386349 97.333336
-24.893707 1.4090338 4.0301652 1.5
-24.85656 1.4375372 4.6683865 2
-24.88839 1.4142284 5.3120885 2
-24.876526 1.4429607 5.9597034 1
-24.871361 1.4730043 6.6188555 2
-24.824291 1.3118129 0.37833339 4
-24.80489 1.3389554 1.0004164 5
-24.828056 1.3197064 1.6239886 4
-24.840656 1.2975507 2.2485354 2
-24.732956 1.3582273 2.8660524 9
-24.778889 1.4025283 3.5001814 7.5
-24.786762 1.4360995 4.1375346 1
-24.839344 1.3352389 4.1360331 3
-24.800789 1.4201465 4.7739697 1
-24.803585 1.3882995 5.4090886 2
-24.823906 1.3673682 6.0531778 1
-24.839455 1.3446984 6.7072158 1
-24.772079 1.3563404 -0.11968632 7
-24.802826 1.3447599 0.49025208 5
-24.811588 1.3842163 1.1034995 2
-24.813831 1.3652315 1.7171847 2
-24.797878 1.3981781 2.3332586 4
-24.792934 1.4340439 2.94666 7.5
-24.899506 1.2912045 2.9474654 255
-24.82563 1.4225788 3.5678744 2
-24.84531 1.407567 4.1944556 1.5
-24.816013 1.4428406 4.8200336 3
-24.833218 1.4208603 5.4489064 2
-24.840172 1.4619637 6.0866194 1
-24.834888 1.4994774 6.7327604 1
-24.725044 1.4378676 0.50278854 4
-24.733555 1.4048448 1.10651 5
-24.731739 1.3691354 1.7123044 5
-24.720493 1.4425826 2.3264272 2
-24.731232 1.3336987 2.3190854 2
-24.696838 1.4217286 3.5419462 6
-24.718845 1.3911014 4.1605339 2
-24.679016 1.4070125 4.7774525 2
-24.685333 1.3662438 5.3958378 3
-24.663841 1.3799424 6.020484 2
-24.776436 1.3147035 6.6709709 1
-24.676617 1.4675784 0.40183455 3
-24.705559 1.3652296 0.3826611 6
-24.671143 1.4660792 1.0086877 2
-24.696526 1.3628716 0.98943806 3
-24.700397 1.3633857 1.5980012 2
-24.684631 1.4134998 2.2181811 1.5
-24.923038 1.302546 3.4408145 57
-24.678036 1.4070597 4.0657039 2
-24.708393 1.3579912 4.6753082 1
-24.706226 1.3544726 5.2998672 1
-24.753948 1.3614941 5.9407859 2
-24.762054 1.3648028 6.5795474 2
-24.762665 1.4271903 0.12335788 2
-24.790157 1.3245945 0.10913567 6
-24.775719 1.4036303 0.71822107 3
-24.782616 1.3783827 1.314783 4
-24.772961 1.4035516 1.919735 3
-24.808884 1.3028955 1.9062099 1
-24.76445 1.4284997 2.5277226 3
-24.802547 1.3549061 3.1252043 83.333336
-24.773331 1.42976 3.7385581 2
-24.778946 1.4026103 4.3457603 4
-24.849995 1.3349743 4.9603505 1
-24.817913 1.3585176 5.5807676 1
-24.812927 1.43015 6.2148309 1
-24.805958 1.397788 6.836165 1
-24.811916 1.4260979 0.10828663 9
-24.832138 1.4945645 0.70211655 2
-24.831287 1.3863697 0.69270015 4
-24.819355 1.4418788 1.2852949 5
-24.820045 1.3920445 1.869922 2
-24.803356 1.4462976 2.465848 4
-24.853588 1.3490667 2.459192 0
-24.772289 1.4433265 3.056895 12
-24.779568 1.3943019 3.6492629 66.5
-24.830692 1.4627104 4.2616472 1.5
-24.819614 1.4637895 4.8586802 3
-24.84029 1.4169807 5.4621997 3
-24.833511 1.4719939 6.081367 2
-24.884418 1.3745646 6.0776248 1
-24.879267 1.3557711 0.01425888 4
-24.860136 1.4655876 0.59085488 3.5
-24.864607 1.4234629 1.1597655 3
-24.838541 1.4335651 1.7301425 4
-24.86054 1.4472723 2.3034213 2
-24.798723 1.3923702 2.8669882 133.5
-24.856894 1.4127574 3.4493811 36
-24.871096 1.4246788 4.0310187 2
-24.846872 1.4900966 5.2044373 3
-24.852251 1.4475889 5.7856755 4
-24.908251 1.4142809 6.3854685 2
-24.732887 1.5082135 0.085907526 4
-24.731577 1.5152488 0.64649427 3
-24.736341 1.5235014 1.2089056 1
-24.739269 1.5314131 1.7727815 1
-24.728472 1.5366535 2.338594 1
-24.715738 1.5415249 2.90538 1
-24.750185 1.3422394 2.9076002 255
-24.74832 1.555326 3.4741538 2
-24.774992 1.354383 3.4754283 177
-24.739309 1.5609889 4.0454679 1
-24.731392 1.4564061 4.0432 4
-24.68111 1.3906188 0.53875154 2
-24.674788 1.3966689 1.6550643 1
-24.682653 1.4018049 2.2161531 1
-24.685125 1.405899 2.7739735 2
-24.685352 1.4096041 3.3379023 3
-24.683159 1.4128833 3.907068 1
-24.662323 1.4182534 4.4749551 1
-24.692076 1.4220095 5.0512996 1
-24.706478 1.321444 5.6281762 1
-24.693897 1.3763919 6.2137361 1
-24.71381 1.4375329 6.8063703 1
-24.761454 1.4304986 0.55814683 7
-24.754827 1.4408245 1.1084503 5
-24.855564 1.3642673 1.6671522 1
-24.756189 1.4642639 2.2150226 3
-24.817959 1.3691592 2.220433 1
-24.673359 1.4077649 2.7636993 102
-24.754808 1.487268 3.3246315 5
-24.747221 1.4976063 3.8838642 2
-24.789215 1.3990574 3.8890436 2
-24.752737 1.5104933 4.450696 2
-24.762934 1.5298848 5.0203924 1
-24.722694 1.5287395 5.5827127 1
-24.748407 1.5455751 6.1623602 1
-24.755388 1.4407401 6.1621723 2
-24.856928 1.4211497 6.7683325 1.5
-24.743568 1.4215059 0.61683983 3.5
-24.735867 1.5078802 1.1596937 1
-24.745068 1.4102974 1.1660945 5
-24.766453 1.4027252 1.717231 3
-24.74477 1.4369097 2.2597878 2
-24.698689 1.4177198 2.8079152 94
-24.725353 1.4612031 3.3650222 5
-24.746193 1.4599504 3.925663 1.5
-24.72374 1.4894485 4.4798017 1.5
-24.735443 1.481575 5.0452752 3
-24.732273 1.4225049 5.6191545 2
-24.742222 1.4643497 6.1914849 2
-24.70418 1.3121099 0.5254572 3
-24.679659 1.4147654 1.0646093 3
-24.715933 1.3228569 1.0668507 2
-24.694719 1.3279123 1.6076084 1
-24.715603 1.3402061 2.1473572 2
-24.876581 1.2784929 2.7062082 31
-24.897276 1.2910109 3.260402 41
-24.693184 1.4170961 3.7889221 2
-24.696081 1.4210153 4.340219 1.5
-24.725512 1.3862519 4.8998284 2
-24.698902 1.3906841 5.4595823 2
-24.699266 1.4485483 6.0242991 1
-24.875357 1.3694866 2.7648356 16
-24.687178 1.4339955 2.7439139 2
-24.695412 1.4108102 3.2861269 15
-24.717491 1.4581923 0.50585973 5
-24.725243 1.4307175 1.0216812 2
-24.723698 1.4023399 1.5428985 3
-24.709778 1.4626541 2.0584722 2
-24.79211 1.4072008 2.5916176 3.5
-24.748402 1.4898834 0.24210215 12
-24.732616 1.5008664 0.75005913 6
-24.793114 1.4183269 0.7537868 2
-24.767754 1.4738364 1.2643266 2.5
-24.761631 1.4460063 1.7767484 1
-24.768715 1.5009952 2.288378 1.5
-24.745995 1.465879 2.801559 35
-24.744038 1.4794655 3.3227222 19
-24.747868 1.5389609 3.8429165 2
-24.764122 1.515245 4.3734884 2
-24.718813 1.4674959 0.31983763 12
-24.766975 1.383739 0.31551629 4
-24.724596 1.4416895 0.8201037 6
-24.717299 1.4591599 1.3229907 2.5
-24.761745 1.3937411 1.8202888 1
-24.726192 1.4971981 2.3289111 2.5
-24.704704 1.4220417 2.8306665 13.666667
-24.672754 1.4853606 3.3405163 8.333333
-24.731035 1.5061769 3.8584089 2
-24.721611 1.5221353 4.3723731 2
-24.706984 1.492034 4.8895659 3
-24.732498 1.5572686 5.4205794 0
-24.705585 1.3968711 0.46938172 4.5
-24.749832 1.3435729 0.96276557 2
-24.733561 1.5056603 1.4668585 1
-24.769485 1.3316169 1.462315 1
-24.697054 1.4410758 1.9649936 2.5
-24.704414 1.4321568 2.4677587 2
-24.755775 1.3745546 2.9731436 13.333333
-24.663795 1.4363663 3.4718945 7.666667
-24.698565 1.5142634 3.9931021 1
-24.724203 1.4138753 4.5043454 2
-24.706669 1.4892669 5.0261359 1
-24.763203 1.3977187 0.37702915 5
-24.761799 1.3834238 0.86892581 3.5
-24.801834 1.5066988 1.370877 1
-24.781441 1.3717394 1.3652475 3
-24.742634 1.4013441 1.8599377 3
-24.761745 1.4285233 2.357656 1.5
-24.770969 1.3713875 2.8546336 12
-24.789265 1.5342274 3.3692935 2
-24.830853 1.3643157 3.366497 4.333333
-24.731716 1.5115893 3.8652103 1
-24.72282 1.4132156 4.3699961 1
-24.729687 1.4636245 0.49326625 4
-24.735899 1.459758 0.97647202 3
-24.739531 1.455498 1.4642106 2.5
-24.753752 1.4089546 1.9558166 2
-24.736111 1.4504542 2.4470201 2
-24.681118 1.4340827 2.9326761 10
-24.755947 1.4337378 3.9379864 2
-24.756901 1.4723241 4.4406543 3
-24.756702 1.4721205 4.9499249 2
-24.690863 1.5057015 0.13732733 2
-24.693178 1.4195974 0.13077559 8
-24.692398 1.4693916 0.61383808 6
-24.694227 1.4758432 1.0979513 3
-24.709927 1.3975735 1.5794088 2
-24.722574 1.4524992 2.0722415 1.333333
-24.754364 1.4140625 2.5590501 2.666667
-24.739386 1.3795555 3.5430267 8
-24.686703 1.4631705 4.0401659 3
-24.698404 1.3845603 0.88978821 2.666667
-24.67647 1.3654027 1.3681122 4
-24.672768 1.3909588 1.8523973 2
-24.684847 1.3801532 2.3365293 2
-24.663883 1.4415011 2.821162 5
-24.670263 1.4676433 3.3100102 3
-24.69422 1.367882 3.8020539 2
-24.738991 1.3556275 4.3014064 1
-24.685019 1.4214649 4.7975068 2
-24.74074 1.52508 0.081970468 1
-24.764618 1.3998456 0.081952587 5.5
-24.751204 1.5259531 0.55268192 2
-24.771084 1.4004672 0.55275607 4
-24.744167 1.4824021 1.0270197 3
-24.744591 1.439832 1.504837 3
-24.740744 1.4862344 1.9829404 3
-24.742249 1.4814801 2.4608314 2
-24.749794 1.43993 2.9419239 16.333334
-24.741062 1.4387653 3.4282863 7.666667
-24.768108 1.483619 3.9190121 2
-24.720863 1.5246451 4.4061813 2
-24.754065 1.4674529 0.0279558 4
-24.73679 1.4936866 0.49888876 4.5
-24.746943 1.4806215 0.96549058 3
-24.753223 1.4249452 1.4350433 2
-24.760172 1.4533263 1.9115472 2
-24.772083 1.4867927 2.3893182 1
-24.741264 1.5063473 2.8626716 3
-24.711824 1.4886647 3.3367972 8
-24.780287 1.4391876 3.8289111 1
-24.780737 1.4244882 4.3133435 1
-24.738733 1.492999 4.8020291 2
-24.712584 1.4115678 0.077908643 1.5
-24.685543 1.483034 0.54191077 2
-24.688332 1.4736449 1.0084516 2
-24.682833 1.4633583 1.4780229 2
-24.700699 1.3769592 1.9469408 1
-24.726192 1.5311946 2.4238303 1
-24.675156 1.4431292 2.4166155 4
-24.68413 1.5169486 2.8925416 1
-24.673006 1.4644908 3.3688445 6.5
-24.697151 1.4156681 3.8485785 2
-24.68712 1.4914483 4.3353968 2
-24.725353 1.481443 0.41469517 7.5
-24.77075 1.3618807 0.41488686 2
-24.723215 1.484233 0.87979406 3
-24.766592 1.364823 0.88051313 1
-24.725811 1.4783386 1.3441697 3
-24.767126 1.3590475 1.345348 0
-24.719685 1.4352621 1.8098806 3
-24.726948 1.4752902 2.283154 2.5
-24.688169 1.4729122 3.2259502 2.5
-24.750408 1.5364258 0.13686348 1
-24.765518 1.4147916 0.13542892 5.5
-24.747204 1.5349391 0.59911585 1
-24.768282 1.4141829 0.59789968 4
-24.768658 1.5266855 1.0611672 1
-24.787693 1.4059772 1.0600481 2.5
-24.751446 1.4786859 1.5230551 2.5
-24.741928 1.4721169 1.9911537 2
-24.752165 1.467382 2.4588346 1.5
-24.697779 1.4611936 2.9258332 3.5
-24.898664 1.3578978 2.9460142 4
-24.698833 1.4574597 0.072675973 8
-24.718855 1.4334149 0.53249407 2.333333
-24.748915 1.5635459 1.0029466 1
-24.711899 1.39814 0.99020624 2
-24.775976 1.3732448 1.4539673 1
-24.697628 1.4968703 1.9264491 2
-24.693729 1.5056424 2.3925242 2.5
-24.716383 1.5206237 2.8679156 3
-24.764826 1.3927034 0.088594548 6
-24.761429 1.4152094 0.54974234 4.5
-24.751608 1.5089039 1.0133077 1
-24.833454 1.353942 1.0080234 1
-24.74402 1.4854718 1.4726418 2
-24.759855 1.4638346 1.9388546 4
-24.788214 1.5468904 1.9454778 1
-24.761984 1.4812218 2.4046211 2
-24.774839 1.5034493 2.8780608 2
-24.729107 1.4652025 0.32570156 7.5
-24.728357 1.4373728 0.78525811 2.5
-24.752769 1.4157919 1.2513684 2.5
-24.700373 1.4335971 0.28597492 5.5
-24.708027 1.448456 0.75111479 3
-24.71047 1.4227846 1.2112383 2
-24.697577 1.4000199 1.6759657 2
-24.704218 1.377985 0.3884528 5
-24.725342 1.5036664 0.86054778 2
-24.751158 1.3464413 0.84864354 1
-24.707869 1.4701011 1.3241303 2
-24.702442 1.4379525 0.14329463 7
-24.737007 1.3613129 0.13706046 4
-24.722067 1.4456792 0.61010915 3
-24.696093 1.4442027 0.27709031 4
-24.666956 1.5040929 0.4925276 4
-24.663845 1.5278592 0.96453249 3
-24.672754 1.5671642 0.27414945 1
-24.681314 1.4483542 0.25972846 6.5
-24.698137 1.4342387 0.7222538 2
-24.729237 1.484144 0.3530485 3.5
-24.676798 1.4659362 0.81418484 3.5
-24.699539 1.4973919 1.2878196 2.5
-24.695417 1.5366662 0.27798793 1
-24.709793 1.4182711 0.26373145 7
-24.68198 1.4801118 0.73491573 5
-24.700907 1.4023495 0.7257762 2
-24.684177 1.4682376 1.2024946 2
-24.70002 1.4440571 0.14481929 10
-24.738613 1.3676502 0.13517812 2
-24.742035 1.4697369 0.61265427 1.5
-24.726839 1.4145118 1.0747609 3
-24.716499 1.4464116 0.45744711 2
-24.755745 1.3940988 0.92107064 1
-24.694418 1.5504733 0.3832311 2
-24.684998 1.4306415 0.36742252 8
-24.693661 1.4702151 0.30137035 5
-24.690414 1.4572353 0.76849151 3.5
-24.706129 1.4696558 0.26731887 4
-24.711859 1.4588869 0.73477715 3
-24.698246 1.4682047 0.3618837 7
-24.728888 1.3918619 0.35221297 3
-24.710787 1.4515693 0.44676882 4.333333
-24.698606 1.51966 0.55163115 4
-24.689613 1.4399428 0.54138535 3
-24.686361 1.5163063 0.4650844 3
-24.697247 1.4383351 0.45499977 4
-24.716633 1.4476942 0.40318027 4.5
-24.744032 1.5001975 0.33100653 5.5
-24.722269 1.3800291 0.31411409 2
-24.720898 1.4555684 0.22992527 1.5
-24.710911 1.477787 0.40198979 3.666667
-24.687918 1.4910543 0.30643171 8
-24.702673 1.4135644 0.29511398 3
-24.682981 1.4777381 0.24124233 8
-24.753479 1.4050162 0.22966759 2
-24.693108 1.4888149 0.3892037 4.666667
-24.691933 1.5090728 0.25528842 3
-24.697571 1.5232304 0.32029048 3
-24.709259 1.4379911 0.44955665 3.333333
-24.702106 1.4880202 0.46672046 4
-24.734417 1.5593501 0.52096081 1
-24.703135 1.4389313 0.49979448 6.5
-24.70776 1.5442023 0.42857727 2
-24.718151 1.4274654 0.40826306 5.5
-24.68609 1.5071768 0.2790688 4.5
-24.754091 1.3954314 0.25880465 2
-24.680817 1.4765679 0.27052552 9
-24.751358 1.4041704 0.25760227 2
-24.690279 1.485007 0.24464092 4
-24.705858 1.4657257 0.34657431 3.5
-24.701519 1.4409096 0.41378379 5
-24.690845 1.549752 0.47618648 2
-24.707283 1.4339385 0.45388958 5.5
-24.68318 1.5469346 0.10708496 3
-24.684368 1.5388014 0.57954288 2
-24.687483 1.4610372 0.56402516 4
-24.742878 1.5269238 0.17268834 2.666667
-24.69371 1.513538 0.64495879 4
-24.676865 1.4340597 0.62876254 2
-24.695312 1.5016283 0.61934584 3
-24.713366 1.5618753 0.16342141 1
-24.711857 1.3785887 0.12618186 7
-24.665445 1.5073881 0.62737155 3.5
-24.671461 1.5014846 0.25878856 2
-24.67433 1.4233997 0.2429671 6
-24.687498 1.4535141 0.72388744 3
-24.680805 1.5432248 0.13429147 1
-24.683693 1.4650023 0.11904366 8
-24.688198 1.458812 0.59184676 7
-24.693062 1.3432807 0.067338288 2
-24.704098 1.5012108 0.56873542 3
-24.711048 1.4234406 0.55459863 4
-24.667456 1.5512972 0.13611236 2
-24.682343 1.4741845 0.12082067 9
-24.689533 1.5063968 0.60129941 3.5
-24.741854 1.3936009 0.579373 2
-24.707071 1.5055089 0.3100059 5.333333
-24.716305 1.462898 0.77604651 3.5
-24.695372 1.4529588 0.45426783 5.333333
-24.704662 1.4465022 0.92763126 2.333333
-24.717993 1.4108973 0.48514405 6.5
-24.707132 1.4390566 0.96586889 3
-24.690065 1.5171912 0.44301537 5
-24.697485 1.5486867 0.92405343 1
-24.718399 1.4332433 0.90126538 3
-24.692509 1.494031 0.24002022 3
-24.701792 1.4893425 0.70799488 3
-24.681095 1.4847987 1.1805644 4
-24.724228 1.4101255 1.1677527 1
-24.740288 1.5761818 0.21342549 1
-24.697012 1.4540564 0.18968567 4.5
-24.699293 1.4436129 0.65720165 4.5
-24.696758 1.4354867 1.1302828 2.5
-24.685539 1.446507 0.20705548 4.5
-24.693035 1.4369593 0.67453712 4
-24.70167 1.4302812 1.1480783 3
-24.696114 1.439378 0.40566432 6
-24.693016 1.4692044 0.88076007 3
-24.676868 1.5003247 1.3610104 4
-24.675045 1.474261 0.43606573 13
-24.738541 1.4668062 0.90566164 1.5
-24.710098 1.5324883 1.3945271 2
-24.692595 1.4707719 0.58654857 3.5
-24.701851 1.5409545 1.0703428 2.5
-24.697035 1.4226309 1.046839 1
-24.724836 1.4185759 1.5223658 1
-24.685873 1.451144 0.45680749 5
-24.696032 1.5586412 0.94827402 1
-24.699083 1.4411778 0.92469347 3
-24.689917 1.5102246 1.4136156 3
-24.729343 1.4605191 0.31354082 5.666667
