# .PCD v0.7 - Point Cloud Data file format
VERSION 0.7
FIELDS x y z intensity
SIZE 4 4 4 4
TYPE F F F F
COUNT 1 1 1 1
WIDTH 1232
HEIGHT 1
VIEWPOINT 0 0 0 1 0 0 0
POINTS 1232
DATA ascii
-22.088276 -52.800591 0.23277628 21
-22.093868 -52.417625 0.25477183 17.5
-22.189657 -52.74707 0.23993504 21
-22.192059 -52.643307 0.24587214 28.5
-22.187431 -52.718384 0.37242448 27
-22.194647 -52.580574 0.38190496 29
-22.161827 -52.792198 0.15825999 21
-22.293043 -52.639168 0.17549431 26.25
-22.23982 -52.456387 0.1863538 29
-22.197382 -52.736572 0.37230027 25.75
-22.065172 -52.77042 0.036938429 21.5
-22.152988 -52.610477 0.0537703 26.666666
-22.043571 -52.698009 0.36150664 27.4
-21.906065 -52.7738 0.34806901 26
-21.941734 -52.605637 0.35531741 29.666666
-21.894604 -52.690617 0.37338287 28.333334
-21.889553 -52.481682 0.37490207 23
-21.917648 -52.573704 0.054561671 20.5
-21.858019 -52.757336 0.06988126 19.666666
-21.902679 -52.486824 0.07208091 18
-21.778221 -52.891113 0.25773293 11
-21.959671 -52.434734 0.25925928 25.5
-22.042175 -52.724129 0.26406008 24
-22.028078 -52.584209 0.26243645 26.5
-22.119715 -52.966835 0.03146499 7.1999998
-22.202137 -52.548279 0.028574411 7.166667
-21.990887 -52.751663 0.41546673 27
-22.032385 -52.655254 0.41527599 26.5
-22.139542 -52.721729 0.19882536 23
-22.131178 -52.490101 0.19657755 24
-22.215981 -52.67646 0.20090055 26
-22.188446 -52.674355 0.13951451 25.200001
-22.084076 -52.862053 0.18899381 19
-22.216545 -52.569752 0.20356739 27
-22.283998 -52.754097 0.20023859 22
-22.084501 -52.851955 0.14459807 19
-22.225906 -52.665009 0.16048127 27.75
-22.186462 -52.64595 0.1745066 26
-22.047365 -52.835766 0.20629233 23.5
-22.111015 -52.462227 0.23662943 28
-22.211836 -52.687817 0.224693 28
-22.165119 -52.575912 0.23073119 29
-22.047514 -52.834541 0.11526263 21
-22.153349 -52.64119 0.13309848 26.666666
-22.080111 -52.652199 0.21028745 26.25
-22.041058 -52.451977 0.21705091 28
-21.920855 -52.762112 0.080456138 23
-21.968658 -52.664108 0.084285378 26
-21.973146 -52.595406 0.39606315 25
-21.993393 -52.873417 0.055089589 8.5
-22.084433 -52.677921 0.053703189 16
-22.171879 -52.406425 0.050821658 7.4000001
-21.990463 -52.764313 0.44395864 26
-22.030321 -52.666012 0.44265544 26.5
-22.090759 -52.653584 0.30543649 18
-22.145565 -52.662655 0.30700243 28.5
-22.15494 -52.868122 0.13996148 21.5
-22.280041 -52.712006 0.1446383 26.666666
-21.837278 -52.86031 0.01585025 6
-22.193935 -52.720497 0.037110031 23.5
-22.213211 -52.772289 0.061717089 25
-22.237633 -52.587444 0.069270432 21
-22.198351 -52.797504 0.26944554 23.5
-22.17153 -52.509121 0.27836025 25.5
-22.196814 -52.784618 0.19589657 23.200001
-22.198111 -52.755039 0.085483789 26
-22.154547 -52.780197 0.23108321 25.6
-22.107306 -52.332138 -0.0040336801 6
-22.138454 -52.724323 0.36068708 29.666666
-21.807442 -52.914246 -0.00098866003 6
-22.047573 -52.667488 0.033584058 26.666666
-22.020185 -52.673512 0.15538871 24.5
-22.018892 -52.495735 0.16896224 27
-21.95467 -52.638264 0.33812857 26.5
-21.932926 -52.457012 0.34575725 28
-21.774019 -52.76379 0.31710052 21
-21.959198 -52.544533 0.32633448 27.75
-21.778112 -52.724625 0.13574994 20
-21.924337 -52.570324 0.13699466 25.5
-21.886423 -52.421867 0.13176513 27
-21.92547 -52.593769 0.19511569 24.200001
-21.885378 -52.501854 0.017135261 13
-21.967911 -52.515766 0.020882489 18.5
-21.949141 -52.469299 0.40977585 16
-21.994877 -52.777584 0.25203645 22
-22.040682 -52.57275 0.249524 29
-22.112057 -52.790459 0.080699213 25
-22.143711 -52.583469 0.080844522 30
-22.208801 -52.86145 0.33486533 27
-22.24324 -52.796253 0.3368181 29
-22.257803 -52.69268 0.33859539 29
-21.972569 -52.876625 0.24683827 17
-22.169167 -52.73064 0.25986987 30
-22.120974 -52.546036 0.26489609 24.666666
-22.159422 -52.79229 0.3771621 26
-22.205191 -52.659405 0.38368094 28
-21.899893 -52.792606 0.3116312 22
-22.001451 -52.739162 0.31732368 25
-21.989429 -52.493355 0.32655716 29
-21.956854 -52.647255 0.34474516 26.5
-21.9536 -52.472889 0.35400796 27
-22.112429 -52.640316 0.26239514 25.799999
-21.936609 -52.78426 0.1059528 22
-22.021217 -52.628128 0.10971695 28.5
-21.961449 -52.644768 0.18627632 25.333334
-21.939209 -52.472164 0.18276823 28.5
-22.384777 -52.755981 -0.023261251 7.166667
-21.98904 -52.670826 0.33701545 26.5
-21.888756 -52.437195 0.33254606 9
-21.838327 -52.797501 0.31226087 23.5
-21.927568 -52.420769 0.30518889 28
-21.992092 -52.725128 0.31469846 23
-21.991598 -52.562603 0.31048417 28
-21.994116 -52.837185 0.14538246 23
-22.131817 -52.701881 0.14647394 26
-22.014645 -52.837318 0.34092867 24
-22.070343 -52.700523 0.33813822 28.333334
-22.037035 -52.623791 -0.01424748 25
-21.96213 -52.766922 0.23275107 22
-21.988312 -52.494701 0.23231381 27
-22.051006 -52.72065 0.23561782 24
-22.065145 -52.661915 0.23578376 26
-22.08164 -52.714882 0.23926049 26.4
-22.011442 -52.452442 0.23846132 12.5
-22.188166 -52.778862 0.197065 23.5
-22.031044 -52.821632 0.29026794 20.5
-22.158541 -52.634281 0.29851341 24.5
-21.880863 -52.844505 0.30526614 22
-21.949734 -52.383568 0.31068254 4
-22.052732 -52.726402 0.31179738 25.5
-22.022913 -52.515354 0.31212306 28
-21.743841 -52.853249 0.15216297 10
-21.939489 -52.664963 0.16524929 24.6
-21.913303 -52.415462 0.17024511 25
-21.888462 -52.762821 0.17768645 22
-21.953289 -52.48645 0.17745185 26
-21.991318 -52.636913 0.18064857 24
-22.024427 -52.883533 0.21152335 22
-22.120371 -52.498016 0.20914203 27
-22.191818 -52.682789 0.21454841 25.799999
-22.039829 -52.84906 0.330073 22
-22.144207 -52.697464 0.33292973 28
-22.118607 -52.62476 0.25505346 27.142857
-22.037504 -52.384922 0.24924129 13
-21.991537 -52.760269 0.29220641 22
-22.029198 -52.600739 0.29292953 28.200001
-21.79203 -52.792976 0.057973981 14
-22.043072 -52.643322 0.22438395 27.166668
-21.90263 -52.396351 0.37276185 2
-21.995977 -52.716045 0.37981808 22.25
-22.017956 -52.473679 0.37769663 21
-22.059629 -52.677959 0.08303678 22.5
-22.116287 -52.724068 0.086053252 24.666666
-21.923971 -52.494164 0.38708913 4
-22.016319 -52.833855 0.39177835 17
-22.056234 -52.716156 0.39225614 20
-22.131725 -52.726799 0.065703928 23.200001
-22.091591 -52.691051 0.21701068 23.285715
-21.993753 -52.684582 0.25100142 25
-21.951809 -52.692245 0.20297265 22.25
-21.935408 -52.510918 0.19905663 26.666666
-22.323938 -52.653019 -0.01942366 10.571428
-22.238045 -52.406986 -0.019457281 10
-22.022778 -52.867405 0.23903018 20
-22.131721 -52.496876 0.25339919 26
-22.101837 -52.83252 0.24364096 19
-22.198896 -52.70443 0.25140435 26.4
-22.016665 -52.657436 0.13171768 26.4
-21.987171 -52.784794 0.40250111 24
-22.038437 -52.611198 0.40812826 27.799999
-22.129009 -52.869129 -0.022341911 10
-21.988129 -52.665428 0.10784394 18.4
-21.930216 -52.412098 0.10923773 19.857143
-22.271973 -52.630302 0.06251359 9.75
-22.302025 -52.820042 0.06442976 9.75
-21.946024 -52.642815 0.30769801 26.714285
-21.921696 -52.449818 0.30749917 29
-22.051453 -52.72773 -0.0089330701 26
-22.045156 -52.753071 0.25432992 23
-22.11038 -52.711163 0.25587153 29.5
-22.258045 -52.785187 0.17922407 22.333334
-22.243141 -52.646473 0.17849523 27
-22.098915 -52.870338 0.17087322 23
-22.194824 -52.54599 0.17614895 26.333334
-22.16531 -52.887871 0.12725902 23
-22.230919 -52.607006 0.13386011 28.666666
-22.314438 -52.802494 0.13647747 28
-22.298859 -52.754906 0.13606286 28
-21.941574 -52.68512 0.30073082 23.5
-21.948969 -52.509487 0.30552232 28.5
-21.810648 -52.666954 0.19291079 26.583332
-21.854889 -52.499226 0.19479263 28.875
-21.945822 -52.612572 0.24025238 26
-21.922731 -52.399071 0.23334229 30
-21.908918 -52.57872 0.47962344 23.6
-22.190292 -52.739887 0.27959406 28.75
-22.16861 -52.54575 0.2727927 28
-22.240047 -52.765873 0.18219292 25.571428
-22.230835 -52.544994 0.17480958 27
-22.321693 -52.810104 0.18773854 25
-22.007013 -52.700714 0.091325283 27.666666
-22.035122 -52.582031 0.088704109 28.333334
-22.007015 -52.725376 0.32431531 29.75
-22.036158 -52.556339 0.31990314 30
-22.049908 -52.752254 0.23405933 27.5
-22.06356 -52.565113 0.23301291 27.916668
-22.083996 -52.709015 0.03757238 10.6
-21.78009 -52.868717 0.24293065 23
-22.022114 -52.675396 0.25658655 27.625
-21.980734 -52.430321 0.25306964 30
-22.096687 -52.737411 0.087952733 27.285715
-22.111376 -52.585091 0.084197164 29
-22.086088 -52.731213 0.3072952 26.5
-22.118292 -52.582912 0.30468953 31
-22.118721 -52.737068 0.30895054 31.200001
-22.213909 -52.753433 0.21919203 28.214287
-22.177105 -52.536762 0.21266365 18.75
-22.210987 -52.737427 0.050273061 11.1
-22.319748 -52.413715 0.047695521 10
-22.090786 -52.672127 0.35665119 18.285715
-22.105986 -52.465302 0.24391472 28
-22.216425 -52.729805 0.25935614 27
-22.107695 -52.79562 0.02918583 24.833334
-22.127573 -52.596962 0.025883971 29.666666
-22.125759 -52.777885 0.23563892 29.6
-22.118225 -52.568954 0.23107439 26.333334
-21.859577 -52.914463 0.053262949 12.4
-21.922737 -52.52243 0.058074001 19
-21.939827 -52.814182 0.26316905 24
-22.030071 -52.488106 0.27032638 29.6
-22.096947 -52.671722 0.27392077 27.5
-22.054852 -52.721348 0.27082276 27.633333
-22.058258 -52.553143 0.26661694 29
-22.1297 -52.84993 0.13250518 16.799999
-22.19611 -52.532536 0.12939608 18.981819
-22.248318 -52.744209 0.23515058 24.5
-22.137753 -52.754272 0.42169535 30
-22.168694 -52.627266 0.42061198 26.666666
-21.759552 -52.842133 0.039821569 20
-21.897837 -52.446182 0.043257181 18
-22.077351 -52.77589 0.064644992 24.75
-22.123604 -52.613846 0.065188587 27.5
-22.085272 -52.791134 0.25581032 26.4
-22.112843 -52.574516 0.2539559 29
-21.975529 -52.552849 0.052902821 19
-21.986057 -52.784199 0.34320629 25
-22.017147 -52.547863 0.33787978 24.083332
-22.07729 -52.6595 0.34507024 27.4
-21.962084 -52.817829 0.19572717 22.416668
-22.057991 -52.631931 0.19883996 28.3125
-22.114161 -52.746445 0.052631021 10
-22.229149 -52.540199 0.05116963 10.583333
-21.907284 -52.898335 0.13353086 16.75
-21.976244 -52.494576 0.29458344 27.125
-21.995232 -52.772419 0.222507 20.388887
-22.018555 -52.627045 0.3048178 27.533333
-22.113157 -52.700932 0.096331596 26.299999
-22.113903 -52.692276 0.27129304 27.583334
-22.251049 -52.729534 0.0097858896 11.75
-22.187948 -52.786777 0.17826271 25.333334
-22.286201 -52.729027 0.26984346 26.575001
-22.015778 -52.824902 0.23861408 22.75
-22.111931 -52.629013 0.24268293 26.813637
-21.957521 -52.804005 0.0058156298 22.5
-22.020573 -52.53603 0.0039279498 26
-22.004299 -52.768185 0.0090667 25
-22.043898 -52.643627 0.0091108102 26
-21.898264 -52.8517 0.16722918 23.5
-21.961836 -52.493496 0.24524605 19.5
-21.989655 -52.784863 0.25396931 22.083332
-22.040199 -52.627972 0.25349653 26.0375
-21.73069 -52.639156 0.14060378 25.36508
-21.687416 -52.637661 0.29667795 25.950001
-21.730106 -52.810135 0.10286939 16
-21.870396 -52.801247 0.27307332 23
-21.988167 -52.622417 0.19599104 27.058334
-21.80027 -52.443489 0.41046202 8
-21.94376 -52.640503 0.42699933 21.285715
-22.067909 -52.851574 0.22058165 22.5
-22.192133 -52.639561 0.22438157 26.933334
-22.235546 -52.730671 0.30654097 31.25
-22.13018 -52.666737 0.44819152 12.857142
-22.24213 -52.802059 0.044619258 17.476923
-22.27269 -52.504925 0.041661918 18.091667
-21.962849 -52.697292 0.39059192 7
-22.092581 -52.696877 0.32542807 16.4
-22.099319 -52.55621 0.32345456 17.950001
-21.886765 -52.820507 0.18841362 17.880953
-21.954771 -52.507015 0.18653619 21.725397
-21.992123 -52.718094 0.26764798 26.833332
-21.995459 -52.634865 0.33725011 27
-22.332312 -52.684467 -0.02784973 11.1875
-21.78578 -52.809364 0.18577033 25.466667
-21.847303 -52.63628 0.19021493 26.780342
-21.887684 -52.72464 0.15197682 25.5
-21.971218 -52.563465 0.15629339 28.4
-21.811928 -52.813847 0.28539562 24.333334
-21.939716 -52.467896 0.35609555 24.700001
-21.968864 -52.723625 0.36597896 26.416668
-21.989298 -52.593822 0.36405265 28.416668
-22.364288 -52.777237 -0.01885492 12.083333
-21.846247 -52.449005 0.030237731 18
-21.902571 -52.894032 0.20188153 24
-22.106703 -52.692509 0.20703197 29.02607
-22.064964 -52.476578 0.18877506 28.5
-22.109604 -52.885788 0.12471128 20.633333
-22.224632 -52.545498 0.11815834 22.9
-22.252338 -52.799656 0.19903171 27.285713
-22.296463 -52.573589 0.12734008 23.800001
-22.082228 -52.523674 0.36493695 12
-22.20513 -52.77483 0.38647604 29.166666
-22.24329 -52.659603 0.38345957 29
-22.168314 -52.844597 0.18769068 25.438095
-22.234827 -52.661873 0.18840408 29.203032
-21.994329 -52.980503 -0.035172459 17
-22.106096 -52.727158 -0.031124471 19.204544
-22.100809 -52.921505 -0.084675491 11
-22.140383 -52.689659 -0.02821523 18.923077
-21.925005 -52.890373 0.13539517 23.333334
-22.052876 -52.608826 0.19981962 27.375
-22.101971 -52.737839 0.20881283 30.077778
-21.869905 -52.748035 0.083729982 21.018717
-21.869505 -52.445881 0.079417653 21.305883
-21.892048 -52.72443 0.32007003 29.923077
-21.896605 -52.520317 0.31877506 28.910713
-21.822945 -52.838314 0.18977708 17
-21.988474 -52.534428 0.19800252 30.333334
-22.044285 -52.683338 0.2120592 22.839645
-21.840227 -52.857883 0.30822802 24
-21.965977 -52.480618 0.36376256 27
-21.913528 -52.830643 0.37281716 23.25
-22.003262 -52.635593 0.37420291 30.178572
-22.029631 -52.997627 0.01336026 18
-22.164658 -52.706184 0.071680307 24.494793
-21.988886 -52.67588 0.32703233 9.181818
-22.176237 -52.90659 0.20711583 20.977777
-22.287899 -52.535965 0.20562428 26.429487
-22.264996 -52.544556 0.41921526 13
-22.142941 -52.807873 0.1519413 23.018641
-22.175297 -52.566849 0.14880013 25.678572
-22.092438 -52.756153 0.39778095 33.666668
-22.112804 -52.595879 0.39562064 28.428572
-22.22052 -52.890903 -0.086798728 12
-21.972097 -52.866905 0.069743633 24.116667
-21.98481 -52.488174 0.055524949 25.605555
-22.100224 -52.755207 0.13252389 29.752399
-22.092016 -52.614769 0.12624907 30.691666
-22.017036 -52.538982 0.26356262 14
-21.859716 -52.707436 0.11117131 22.494711
-21.838131 -52.386124 0.10530168 20.241667
-22.294907 -52.806202 0.0096437903 12.791667
-22.301189 -52.395565 0.0055249901 10.954545
-21.856314 -52.702473 0.35019612 30.442646
-21.836185 -52.486416 0.29923737 30.5
-21.860905 -52.907761 0.1637786 19.787878
-21.975277 -52.587326 0.16416931 23.673737
-22.146746 -52.697491 0.17244405 23.302248
-21.881308 -52.853802 0.35258758 25.5
-21.957479 -52.483509 0.39043188 23
-22.011406 -52.67284 0.40635377 30.820728
-22.112465 -52.750172 0.065032363 22.086956
-22.168777 -52.351765 0.05125821 11.954545
-22.175577 -52.725597 0.29777884 29.80546
-22.124754 -52.501606 0.27780581 23.75
-22.230141 -52.808331 0.070376039 12.5
-22.098379 -52.853298 0.30764169 21.1
-22.159323 -52.551743 0.30142003 22.692381
-22.17524 -52.835876 0.36149973 23.666668
-22.22908 -52.682579 0.31927967 26.834711
-21.782021 -52.417805 0.080797084 12.25
-21.923492 -52.911968 0.10609353 16.719999
-22.042763 -52.640629 0.10995114 19.388889
-21.891338 -52.819023 0.34191763 26.732143
-22.004271 -52.623066 0.34709024 30.995422
-21.857174 -52.906643 -0.088394277 17.932693
-21.955908 -52.553493 -0.049144272 24.75778
-22.13769 -52.901108 -0.065599382 18.720146
-22.181192 -52.661278 -0.070284657 21.390972
-21.866293 -52.871887 0.15178013 19.96875
-21.939543 -52.552471 0.14721823 20.558334
-22.003754 -52.813778 0.16977346 32.136364
-22.023132 -52.654182 0.16462409 32.681816
-22.301933 -52.666836 0.067424417 14.122917
-21.843037 -52.838867 0.255584 21.389696
-21.929745 -52.585434 0.251643 25.677378
-21.993963 -52.709305 0.31216526 30.025
-21.705322 -52.730179 0.48549426 11.666667
-21.780643 -52.603386 0.48651689 12.066667
-21.968767 -52.366264 -0.035433471 13.210526
-22.122103 -52.86232 -0.013717 16.707499
-22.22369 -52.576115 -0.017978249 17.4
-21.79533 -52.872974 0.050616618 18
-22.067656 -52.782879 0.24002993 26.165176
-22.092009 -52.579697 0.22508496 27.871134
-21.855196 -52.352638 0.045725942 11.923077
-22.086277 -52.91151 0.083943248 17.559525
-22.1933 -52.583561 0.084343143 21.220833
-22.068556 -52.837288 0.33997434 19.178017
-22.141253 -52.556267 0.33332801 24.51086
-22.18049 -52.796734 0.32717955 26.154167
-22.216965 -52.693668 0.32662266 30.015907
-21.972836 -52.856583 0.15304112 20.230989
-22.021854 -52.542473 0.16257274 23.480465
-21.89016 -52.738804 0.43234634 25.82959
-21.937397 -52.550934 0.42284065 25.815887
-22.000607 -52.791241 -0.08829093 23.60817
-22.043045 -52.459057 -0.10701346 22.254763
-22.211288 -52.8083 -0.10832071 21.224291
-21.850828 -52.945663 0.038125101 19
-21.952534 -52.840252 0.13170177 18.722223
-22.019499 -52.531296 0.13202131 23.499052
-22.073805 -52.736229 0.15980142 27.450127
-22.073448 -52.574825 0.14639163 30.25
-21.904301 -52.931068 0.096649408 17.105024
-22.098904 -52.597218 0.12085438 22.450882
-22.384838 -52.710648 0.082129598 15.734482
-21.964668 -52.829166 0.3612383 20.233334
-22.054239 -52.602062 0.37684315 27.703075
-22.118372 -52.720901 0.34576029 34.327381
-21.874466 -52.970322 0.044503029 15.754788
-21.987999 -52.540813 -0.0041782898 15.981481
-22.039 -52.335938 0.075339973 18.91054
-22.208475 -52.705326 0.088014603 21.66761
-22.23494 -52.426189 0.08381331 22.146223
-22.025742 -52.500469 0.34879768 18.25
-22.071672 -52.460209 0.28078252 16
-22.112011 -52.679123 0.3570956 25.615385
-22.096029 -52.477798 0.28839266 18
-21.960556 -52.919479 -0.057329241 13.6875
-22.339157 -52.773727 0.16390657 21.855247
-22.347021 -52.538223 0.14766937 23.915134
-22.183874 -52.673668 0.35412461 13.645454
-22.210878 -52.559196 0.35237622 14.041666
-22.215252 -52.640369 -0.024285439 15.151931
-22.078836 -52.906349 0.156537 12.005147
-22.22632 -52.616154 0.21233046 18.920427
-22.144871 -52.394543 0.11636305 17.985714
-22.301924 -52.694069 0.22251683 23.244669
-22.019503 -52.642796 0.38449878 12.724138
-21.785677 -52.886772 0.021033879 12.841667
-21.857027 -52.314884 0.01480329 12.174826
-22.112217 -52.776188 0.026325461 13.991885
-22.143721 -52.393906 0.018001201 13.378224
-22.343426 -52.739025 0.0117166 13.315789
-21.802216 -52.851395 0.20286226 8.916666
-22.023596 -52.693302 0.30169111 19.681734
-22.000071 -52.495583 0.27359235 20.016766
-21.977385 -52.710514 -0.10158241 14.675858
-22.179829 -52.745243 -0.11229467 13.999062
-21.953142 -52.68758 0.14948714 19.62697
-21.886129 -52.423344 0.082363129 16.796312
-22.02774 -52.713791 0.16303855 25.002466
-21.798855 -52.658974 0.31397289 11.7
-21.863873 -52.904362 0.01370859 14.771303
-21.929831 -52.450352 0.0099639902 13.791245
-22.03055 -52.99757 0.0083734998 13.491048
-22.060404 -52.606152 0.01443505 14.154895
-21.831961 -52.411488 0.20364022 14.062409
-21.913799 -52.803345 0.25673711 14.182105
-21.986712 -52.621227 0.28344613 21.289749
-21.76783 -52.758831 0.42880797 9.833333
-21.790586 -52.61285 0.43176413 12.6
-21.880703 -52.869774 0.16803849 11.738422
-22.023876 -52.524372 0.22261548 18.28755
-21.920948 -52.784248 0.41361493 13.441636
-22.003992 -52.592194 0.41982162 19.84796
-21.901291 -52.888382 0.17743504 8.7850695
-22.014868 -52.410782 0.21167016 14.7375
-22.101849 -52.812252 0.26129007 13.166667
-22.184307 -52.660236 0.27589452 24.959183
-21.965969 -52.79549 0.3704372 9.9638891
-22.029696 -52.520245 0.35125518 14.747501
-22.091427 -52.806438 0.35489118 16.176191
-22.141163 -52.649376 0.36491561 22.181526
-22.077951 -52.417286 0.19433677 7.666667
-22.109695 -52.334801 0.12269366 10.482704
-22.227793 -52.894653 0.23978657 10.992063
-22.345661 -52.583096 0.26940465 19.955223
-22.303448 -52.439728 0.2140969 18.333334
-21.834663 -52.402908 0.14692539 8
-22.100571 -52.922935 0.24095488 3
-22.159782 -52.504726 0.32691228 11.096202
-22.271368 -52.873066 0.34306896 10.8875
-22.323891 -52.676594 0.36049151 20.040314
-21.817886 -52.862679 0.2889812 6.7460308
-21.914452 -52.435966 0.30764067 13.361111
-21.883017 -52.384476 0.2677303 11.75
-21.922468 -52.828541 0.37934196 10.25
-21.916695 -52.616055 0.41544151 17.642572
-21.703123 -52.774006 0.3468349 14.933382
-21.733965 -52.590473 0.34999287 16.768398
-21.880682 -52.599045 0.34041595 26.552631
-21.682863 -52.750328 0.34188271 9.7244978
-21.777519 -52.495934 0.35644323 14.256582
-21.856833 -52.73597 0.37656504 18.622202
-21.87319 -52.594269 0.38120896 17.727125
-21.717949 -52.740803 0.21356869 9.0258617
-21.810247 -52.483204 0.23935807 12.054444
-21.826208 -52.692028 0.26377344 16.325575
-21.863558 -52.540699 0.26366413 16.781467
-21.679504 -52.750458 0.31914413 4.5
-21.865168 -52.725254 0.43028295 9.818182
-21.735907 -52.77103 0.42325699 13.833333
-21.719078 -52.663326 0.42806214 15.42968
-21.717594 -52.796581 0.33404076 6.333333
-21.700535 -52.636005 0.33349884 5.666667
-21.845957 -52.779263 0.39017481 9.5
-21.858236 -52.656116 0.42399871 14.427322
-21.760317 -52.843842 0.26805925 7
-21.825104 -52.57579 0.33028972 6.7222219
-21.938801 -52.654949 0.41157937 14.581005
-21.805426 -52.858353 0.13999885 6
-21.818493 -52.650627 0.17717379 5.9898992
-21.966568 -52.678619 0.26225632 15.382936
-21.667505 -52.695309 0.27980506 6
-21.795422 -52.715706 0.35752648 13.647058
-21.62738 -52.66016 0.26506728 7.0535722
-21.751619 -52.636997 0.33126658 16.945454
-21.670481 -52.637466 0.29953825 6.1296301
-21.810835 -52.629436 0.37852365 16.492723
-21.688602 -52.576942 0.30950904 8.1029425
-21.77347 -52.654457 0.37006354 15
-21.688864 -52.794537 0.24784702 5.5
-21.813091 -52.709202 0.33113724 8.2105265
-21.906128 -52.624527 0.35350162 16.402985
-21.621168 -52.557098 0.24608707 6.5
-21.772707 -52.616848 0.34391826 8.166667
-21.840967 -52.664402 0.3896184 14.675675
-21.727171 -52.624237 0.29972506 6.166667
-21.829447 -52.688881 0.36932647 13.790566
-21.554964 -52.572285 0.22628206 5.7142859
-21.702374 -52.702007 0.33151668 16.729437
-21.717293 -52.587608 0.32578474 14.121111
-21.999533 -52.813179 0.24237263 6
-22.088715 -52.531624 0.26883626 6.25
-22.178913 -52.724094 0.35529727 16.357143
-22.194832 -52.612652 0.35305679 14.767858
-21.997999 -52.811733 0.19833779 8
-21.982101 -52.60487 0.1712923 6
-22.079485 -52.785496 0.25021917 7
-22.122948 -52.611519 0.2653839 6.5999999
-22.234724 -52.671028 0.34439874 14.612904
-21.943493 -52.61512 0.19404346 7
-22.061434 -52.664104 0.27283037 7.333333
-22.168901 -52.669655 0.34307933 15.178572
-21.748684 -52.612114 0.21104586 7
-21.936165 -52.654179 0.33258724 8.4444447
-22.007669 -52.684593 0.37950718 16.25926
-21.65267 -52.687645 0.19552088 6
-21.731319 -52.518234 0.2063694 7
-21.835419 -52.75713 0.29438633 8.1388893
-21.83507 -52.529602 0.27418184 6.5
-21.96553 -52.695019 0.36389589 18.517241
-21.968834 -52.583878 0.36327213 14.96
-21.708538 -52.536705 0.23240441 7
-21.831833 -52.74995 0.32936037 9.4333334
-21.715635 -52.623268 0.2551713 5.5
-21.910835 -52.715431 0.36605299 18.941177
-21.914314 -52.617764 0.36712265 15.833333
-21.752321 -52.771049 0.32627815 11.083334
-21.74568 -52.575142 0.31914473 8.9523811
-21.844088 -52.736786 0.37219721 17.933332
-21.833508 -52.638016 0.3777138 14.77
-21.684683 -52.737518 0.37060875 16.857143
-21.653484 -52.656555 0.35066921 10.923077
-21.703081 -52.703083 0.38214922 17
-21.700844 -52.668812 0.38047814 13.857142
-21.74905 -52.662022 0.32787597 11.555555
-21.792458 -52.68182 0.35742927 15.444445
-21.703856 -52.767002 0.32392287 8.2666664
-21.699268 -52.512951 0.28210437 6
-21.8298 -52.657341 0.38163745 16.403509
-21.874052 -52.522797 0.38429242 18.066668
-21.684135 -52.782047 0.31749618 8.6999998
-21.728079 -52.495255 0.30492938 6.0500002
-21.813053 -52.655941 0.37766254 16.932793
-21.828905 -52.529778 0.37530756 13.9375
-21.718491 -52.755356 0.30307251 9.0882359
-21.710197 -52.485489 0.25754261 6
-21.811275 -52.672295 0.35799718 15.877193
-21.851753 -52.526226 0.35658401 17.142857
-21.692671 -52.797527 0.28316474 7.7431822
-21.687382 -52.473507 0.23886311 5.583333
-21.853119 -52.648487 0.36507946 17.112953
-21.861412 -52.510201 0.35783696 13.169871
-21.762981 -52.81155 0.29178274 7.7285709
-21.751211 -52.466625 0.24115062 5.541667
-21.907253 -52.665688 0.36643845 17.104792
-21.915321 -52.512806 0.35773593 15.000196
-21.748491 -52.824928 0.27044475 7.2037029
-21.748121 -52.478725 0.22536397 5.9333329
-21.91317 -52.66851 0.35599267 16.481148
-21.934172 -52.518318 0.34295726 15.864053
-21.754698 -52.809242 0.27384782 7.9080882
-21.721508 -52.472248 0.21587092 5.333333
-21.895872 -52.677929 0.34801096 17.069954
-21.903767 -52.521008 0.33879673 15.284292
-21.689423 -52.460171 0.23075604 5.5
-21.857841 -52.66172 0.36373186 17.084818
-21.864006 -52.507034 0.35336906 14.937466
-21.720932 -52.801231 0.26734829 7.5204682
-21.712893 -52.469517 0.22217327 5.4499998
-21.862793 -52.657059 0.33993727 16.816544
-21.866095 -52.509327 0.32921225 13.932583
-21.716377 -52.816612 0.25417018 7.0538459
-21.750687 -52.45776 0.23842585 5.875
-21.875593 -52.650307 0.35274136 16.031404
-21.89234 -52.496712 0.33838952 15.149067
-21.757669 -52.798492 0.28880274 7.0352569
-21.776699 -52.447029 0.24795496 6.125
-21.912157 -52.639713 0.37003469 16.396704
-21.924435 -52.486198 0.35242379 15.195777
-21.777277 -52.79565 0.29816329 7.513793
-21.799391 -52.454971 0.27335405 5.75
-21.917925 -52.647972 0.37057406 17.203653
-21.922821 -52.494579 0.36059511 14.896884
-21.770472 -52.804768 0.28267908 7.4428568
-21.798668 -52.47546 0.25814968 5.75
-21.927294 -52.654442 0.36213672 16.725044
-21.935663 -52.51701 0.35421056 14.13096
-21.739771 -52.80225 0.26410156 7.876667
-21.722099 -52.465649 0.22248322 5.5
-21.898302 -52.641666 0.35774153 16.418625
-21.928167 -52.500381 0.35021275 16.441416
-21.732681 -52.785736 0.32794815 7.8800001
-21.725628 -52.451839 0.27613139 6.375
-21.864113 -52.651218 0.39176011 17.150459
-21.875881 -52.499725 0.38311493 15.359539
-21.674438 -52.450314 0.23944587 5.666667
-21.832848 -52.642273 0.36865914 17.559908
-21.849258 -52.491737 0.36194551 15.790065
-21.694159 -52.763081 0.30514568 7.376544
-21.73341 -52.465488 0.2961874 5.5
-21.810122 -52.649433 0.3704161 15.549495
-21.848042 -52.486523 0.36179316 14.740259
-21.674383 -52.554665 0.27031982 6.75
-21.799526 -52.644852 0.3631078 16.132076
-21.742779 -52.686058 0.29780674 7.375
-21.825371 -52.705284 0.35327244 13.916667
-21.745274 -52.753727 0.27231628 6.5999999
-21.792627 -52.485451 0.2618798 7.333333
-21.871624 -52.681435 0.3496024 15.421635
-21.91058 -52.506271 0.34375727 12.666667
-21.70734 -52.731358 0.27041352 5.9444451
-21.732914 -52.47039 0.24774259 4
-21.853764 -52.660343 0.36231995 15.968132
-21.895048 -52.497253 0.36037827 15
-21.723539 -52.740471 0.26964539 7.6153851
-21.712378 -52.473438 0.22336251 5
-21.846178 -52.673431 0.34551913 15.944445
-21.892668 -52.499737 0.34669757 13.714286
-21.692442 -52.652882 0.2816835 7.0625
-21.832411 -52.636711 0.34506726 16.976812
-21.852772 -52.483059 0.33210135 14.285714
-21.66407 -52.477039 0.28315771 7
-21.757267 -52.670151 0.37659705 14.455224
-21.750685 -52.481739 0.34066445 8
-21.690702 -52.589916 0.3377248 8
-21.77804 -52.652256 0.40164351 15.139535
-21.757851 -52.663933 0.32865858 10.263158
-21.812168 -52.686951 0.36629164 13.555555
-21.665825 -52.618263 0.28815329 7.7777781
-21.75729 -52.663525 0.35358077 14.625
-21.650114 -52.721012 0.26740646 6.0428572
-21.778896 -52.716969 0.34894335 13.709459
-21.660057 -52.72242 0.31696081 7.75
-21.758883 -52.703037 0.38102508 16.346153
-21.689135 -52.695393 0.30665779 7
-21.783176 -52.711857 0.36646473 15.095238
-21.653564 -52.643639 0.2801404 6.6624999
-21.774029 -52.687958 0.35946274 15.414974
-21.750694 -52.697502 0.35043603 15.230769
-21.681036 -52.656635 0.27680016 6.0190482
-21.810036 -52.67178 0.3633002 16.026655
-21.791761 -52.645241 0.41430557 16.549845
-21.665779 -52.652134 0.24670726 5.6984119
-21.817537 -52.660488 0.34883189 15.727805
-21.648012 -52.694603 0.26061779 6.0625
-21.812681 -52.672592 0.35320449 16.790697
-21.815233 -52.678703 0.35536885 16.485714
-21.65626 -52.658272 0.27668786 6.333333
-21.796227 -52.670647 0.35337299 16.5
-21.779171 -52.650295 0.35846859 16.06514
-21.641195 -52.67865 0.31209093 6.1428571
-21.765911 -52.652931 0.37919641 15.278628
-21.723307 -52.551128 0.27416074 6.6083341
-21.842117 -52.660629 0.35753393 15.428069
-21.671478 -52.516125 0.28111255 5.375
-21.798151 -52.641182 0.37306094 15.943539
-21.693617 -52.55294 0.30123985 6.125
-21.817076 -52.639568 0.39048827 15.732009
-21.694912 -52.499603 0.24879909 5.416667
-21.843542 -52.637688 0.35804057 16.560257
-21.682333 -52.578556 0.2607615 6.1111112
-21.8111 -52.667641 0.35135043 14.512134
-21.656616 -52.571209 0.23610187 5.2333331
-21.820015 -52.667141 0.3494426 14.816209
-21.65147 -52.613808 0.25604188 5.333333
-21.832138 -52.651039 0.36277324 15.967106
-21.696796 -52.591293 0.28120863 6.0714288
-21.814714 -52.675533 0.36297011 14.15586
-21.656687 -52.558357 0.21116918 5.2444439
-21.827337 -52.656551 0.32765377 15.470128
-21.65201 -52.605713 0.29728174 6.375
-21.762814 -52.679058 0.37161362 14.483828
-21.649649 -52.609978 0.26615417 5.7777781
-21.821262 -52.647541 0.36528099 16.191254
-21.649338 -52.511467 0.2466628 5.5
-21.821934 -52.638927 0.36701483 16.353901
-21.653276 -52.535461 0.25371468 5.833333
-21.74469 -52.797436 0.30937171 8
-21.791462 -52.653038 0.35095656 16.185898
-21.667427 -52.735146 0.32279623 8
-21.650143 -52.732624 0.2757535 6
-21.750126 -52.728683 0.33906567 9.5
-21.632317 -52.680191 0.23535109 5.5
-21.790113 -52.707405 0.33664191 13.15
-21.621986 -52.657555 0.21236855 6
-21.7381 -52.6544 0.28676355 6.666667
-21.84306 -52.699436 0.35465038 14.307693
-21.76202 -52.732662 0.34459615 7
-21.795229 -52.723198 0.36531842 11.3
-21.640574 -52.665539 0.28588766 5.9821429
-21.794491 -52.668045 0.37001216 16.238094
-21.666775 -52.626167 0.26529986 5.75
-21.784113 -52.686214 0.34104162 15.709678
-21.683805 -52.676964 0.27492207 6
-21.789566 -52.708836 0.34115791 13.55
-21.710474 -52.739204 0.31740373 7.5
-21.691147 -52.695999 0.42706877 15.28
-21.629644 -52.615414 0.26650929 6
-21.763275 -52.679417 0.35218847 16.171429
-21.600681 -52.651009 0.2548328 5.666667
-21.753345 -52.7561 0.35043842 12
-21.75757 -52.69521 0.35441989 15.5
-21.626686 -52.662643 0.29529721 5.666667
-21.761717 -52.692757 0.38118064 14.363636
-21.687523 -52.656803 0.27394652 6.25
-21.812994 -52.699177 0.35411566 15.08
-21.667871 -52.635777 0.28179419 5.4000001
-21.802971 -52.690384 0.36915421 13.98423
-21.681953 -52.620941 0.25024462 5.25
-21.832909 -52.681473 0.34710324 14.357693
-21.57991 -52.538086 0.20257676 7.5
-21.672621 -52.613781 0.27929837 5.875
-21.817598 -52.679668 0.37185037 14.509434
-21.654287 -52.611233 0.26222843 5.7666659
-21.821955 -52.653835 0.35653299 16.029343
-21.647738 -52.587963 0.27953863 5.583333
-21.779097 -52.675636 0.36467695 15.18718
-21.622818 -52.653767 0.2680617 6.333333
-21.739462 -52.699059 0.34180653 14.769231
-21.801117 -52.441402 0.35756451 0
-21.663509 -52.562168 0.20076704 0
-21.729309 -52.659714 0.34848604 1
-21.795736 -52.422153 0.2500273 6.333333
-21.97543 -52.317619 0.22205174 4
-21.743769 -52.643555 0.29002631 4
-21.677858 -52.473999 0.16591614 5
-21.776901 -52.42408 0.15279478 3
-21.688368 -52.592766 0.11690025 22.5
-21.733315 -52.450233 0.19465281 9
-21.751923 -52.760208 0.27974075 7
-21.747831 -52.547386 0.35870522 2.5
-21.697744 -52.532494 0.27577364 6
-21.881508 -52.465237 0.079997227 5
-21.724577 -52.555859 0.044912461 23.5
-21.855223 -52.548859 0.087530658 12
-21.704741 -52.563927 0.34539437 32
-21.659081 -52.550461 0.33674115 33
-21.722935 -52.565735 0.27012417 28
-21.663961 -52.46806 0.30656672 27
-21.760174 -52.605946 0.37985691 12
-21.706497 -52.553112 0.20370938 26
-21.846306 -52.517033 0.15488333 13
-21.597322 -52.57439 0.21416181 22.5
-21.749714 -52.591331 0.23982255 11
-21.849218 -52.489452 0.36023021 29
-21.636021 -52.623329 0.43915915 22.5
-21.73106 -52.557194 0.17271526 20.5
-21.99925 -52.415459 0.20631774 9.5
-21.76886 -52.507236 0.28157216 14
-21.859394 -52.469307 0.22466667 19
-21.709763 -52.536819 0.27923781 15
-21.954821 -52.42458 0.48390108 11
-22.132202 -52.42704 0.43310934 5
-21.813227 -52.521912 0.059233349 3
-21.693584 -52.663639 0.11428516 7
-21.67264 -52.674198 0.10265218 3
-21.98777 -52.429996 0.3352167 12
-21.83596 -52.490162 0.38962001 16
-21.706036 -52.605629 0.44482249 9
-21.883091 -52.509228 0.18770547 5
-21.726662 -52.553741 0.24634977 11
-21.829563 -52.505718 0.45901966 12
-21.70018 -52.631794 0.016543901 4
-21.708927 -52.590626 0.3800807 23.666666
-21.627161 -52.626167 0.36681336 23.5
-21.797426 -52.511162 0.38086534 25.5
-21.796186 -52.599674 0.25135177 7.5
-21.872467 -52.560509 0.50966108 10
-21.916012 -52.540695 0.1569705 5
-21.729734 -52.524162 0.20341349 16
-21.781559 -52.543049 0.41155246 35
-21.63199 -52.618519 0.46249869 32
-21.798635 -52.549274 0.3262651 19
-21.751284 -52.526905 0.40651152 28
-21.846958 -52.502975 0.29015604 23
-21.612843 -52.594608 0.36598793 27.5
-21.734858 -52.513531 0.39157397 25
-21.667227 -52.539799 0.12064832 16
-21.74431 -52.50116 0.085548177 26
-21.585163 -52.555386 0.13500334 29
-21.675472 -52.520733 0.32054898 32
-21.781277 -52.484482 0.33286741 33
-21.781992 -52.472622 0.23922116 27.5
-21.566654 -52.608959 0.31711203 25
-21.754482 -52.512745 0.11859392 30.5
-21.784506 -52.471638 0.26766741 30
-21.632746 -52.540001 0.32143128 34
-21.804499 -52.532207 0.3986612 22
-21.751282 -52.535267 0.15949012 23.5
-21.66646 -52.530972 0.23368903 31
-21.751778 -52.495953 0.24426779 27
-21.635288 -52.580593 0.12238133 11.5
-21.731287 -52.491795 0.3068316 34
-21.737232 -52.489437 0.25633401 36
-21.866356 -52.535736 0.10049462 8
-21.713449 -52.512768 0.095233187 18
-21.57551 -52.618614 0.1465895 23
-21.801851 -52.545784 0.089755297 11
-21.616709 -52.53289 0.13994575 29
-21.857761 -52.478127 0.17961299 10
-21.612827 -52.542511 0.25372159 35
-21.624363 -52.583832 0.12688833 8.5
-21.703423 -52.511806 0.42073011 23
-21.577974 -52.558537 0.28126663 20
-21.786613 -52.453674 0.35338706 22
-21.633368 -52.522758 0.39603823 20
-21.805998 -52.435211 0.20777103 18
-21.580681 -52.549965 0.27221939 14.5
-21.743338 -52.477264 0.25069013 23
-21.590199 -52.54615 0.29399553 19
-21.585712 -52.555038 0.31662935 20
-21.769329 -52.475044 0.30758679 16.5
-21.755024 -52.510334 0.40984285 6
-21.850662 -52.556046 0.12481213 1
-21.651127 -52.510429 0.1676321 15
-21.675432 -52.521553 0.34677956 28
-21.689787 -52.512585 0.48544407 23.5
-21.79356 -52.454716 0.3509059 24
-21.634127 -52.513615 0.39009762 28
-21.70911 -52.497238 0.093373343 25
-21.554466 -52.566956 0.13453822 26
-21.724146 -52.471233 0.33009967 30
-21.586004 -52.626598 0.18410483 8
-21.761127 -52.473747 0.34537256 28
-21.602102 -52.532261 0.38658226 32
-21.75082 -52.538174 0.06251625 8
-21.574566 -52.551929 0.10577492 23
-21.569584 -52.613056 0.43495399 32
-21.611898 -52.538639 0.17150961 9
-21.687992 -52.629318 0.00687281 5
-21.633593 -52.497276 0.22288689 28
-21.746994 -52.553909 0.15552127 7
-21.585476 -52.573994 0.19491994 24
-21.693611 -52.543648 0.42077151 12
-21.839191 -52.561356 0.39811915 18
-21.671112 -52.532204 0.50020099 8
-21.642258 -52.563396 0.24920899 2
-22.102268 -52.560196 0.04604793 16
-21.958694 -52.495544 0.090156913 2
-21.85054 -52.419483 0.15808523 1
-21.890198 -52.439568 0.29179621 22
-22.179195 -52.536091 0.3719489 13
-22.025404 -52.509613 0.40472454 20
-21.963833 -52.395748 0.26240844 9
-21.778101 -52.440147 0.29532236 16
-22.02146 -52.452267 0.12917989 1
-22.036163 -52.361385 0.19490433 12
-21.873344 -52.318245 0.22362095 8
-22.059896 -52.407211 0.2529223 28
-22.045752 -52.496738 0.068278491 5
-22.073996 -52.45697 0.42040521 27.5
-22.135942 -52.542355 0.0149411 9
-21.891975 -52.467518 0.0507797 11.5
-22.075932 -52.473965 0.30458516 26
-21.79862 -52.450115 0.33111447 19
-22.075045 -52.486565 0.36363596 23
-22.053139 -52.506989 0.025456071 17
-21.777319 -52.482307 0.064998269 3
-22.197601 -52.720181 0.27120686 13
-21.991156 -52.455353 0.33570576 26
-22.1563 -52.594086 0.18560475 25
-21.991714 -52.411903 0.23008412 22.5
-22.144939 -52.68327 0.13036215 11
-21.905565 -52.472786 0.18682063 18.666666
-22.041937 -52.517086 -0.040987369 5
-21.776505 -52.479351 -0.01045644 1
-21.937378 -52.439663 -0.067267947 2
-22.027281 -52.523399 0.05335534 15.666667
-21.946796 -52.482262 -0.02612257 2
-22.225021 -52.590969 0.17922455 20
-22.041702 -52.313423 0.22267538 23
-22.104549 -52.581245 0.18621039 28
-21.940128 -52.412163 0.22123796 21
-22.234221 -52.672516 0.0069011999 1
-22.121277 -52.552284 0.029538089 21
-21.915043 -52.438469 0.060763061 16.5
-22.112566 -52.601276 0.031574551 26
-21.915552 -52.475384 0.0601868 22
-22.19537 -52.531792 0.10598272 25
-22.160534 -52.561871 0.099301398 26
-21.994064 -52.407318 0.13557702 22
-22.046799 -52.425293 0.20847529 27
-22.171337 -52.52314 0.090317011 25.5
-22.073235 -52.484062 0.22482842 26.333334
-22.161724 -52.548157 0.27058458 31
-21.901424 -52.395355 0.33294368 14
-22.120724 -52.557007 0.31597602 22
-22.160229 -52.715027 0.16520953 22
-22.045715 -52.518353 0.21618748 26.5
-21.953976 -52.504288 -0.02266318 16
-22.114605 -52.627182 0.14393389 30
-21.893234 -52.436169 0.20510209 18
-22.182884 -52.704552 0.067940831 1
-22.017208 -52.460297 0.13817084 26
-22.086643 -52.622108 0.055463251 24
-22.027412 -52.475792 0.084266253 29
-21.865154 -52.429398 0.11130303 19
-22.109783 -52.57795 0.35392261 19
-22.199917 -52.66827 0.20963556 26
-22.10067 -52.462608 0.25472385 30.5
-21.964119 -52.475967 0.0065633701 12.333333
-22.089249 -52.523045 0.21630239 30
-21.8475 -52.453365 0.27130413 12
-22.079773 -52.597717 -0.0083683701 17
-21.942142 -52.432968 0.04859674 23
-22.094547 -52.629585 0.10107958 33
-21.911854 -52.407185 0.16234362 18
-22.121265 -52.616112 0.10771167 32
-21.969704 -52.462883 0.15437782 22
-22.102032 -52.581516 0.23421967 32
-21.949909 -52.429001 0.28284323 23
-22.071835 -52.557327 0.33001828 26
-22.091686 -52.805382 0.23095894 17
-22.007877 -52.600456 0.27983189 29
-22.025906 -52.498127 0.10835439 28.5
-22.082451 -52.520805 0.31715113 25
-22.030338 -52.539719 0.20178461 28.333334
-22.106621 -52.657753 0.01436019 13
-21.930939 -52.367325 0.078387983 16
-22.095959 -52.583282 0.3098889 35
-21.999386 -52.414062 0.27512681 21
-22.117691 -52.511734 0.38177097 18
-22.074245 -52.711662 0.25739861 22
-22.101196 -52.586006 0.14920789 34
-22.014481 -52.416809 0.18248254 26
-21.876015 -52.528183 -0.03434122 9
-22.046032 -52.669067 -0.0078201899 16.5
-21.961586 -52.498436 0.0113892 21
-22.080967 -52.509323 0.19756019 30
-22.095306 -52.501801 0.15086931 37
-22.087837 -52.49786 0.2693873 36
-21.990326 -52.514252 0.38297516 27
-22.175678 -52.546227 0.0061514401 26.666666
-21.993664 -52.840801 -0.092675447 3
-22.097626 -52.599144 -0.065663584 28
-22.068172 -52.642208 0.12012643 34
-22.104061 -52.571804 0.23867178 37
-22.040634 -52.470341 0.25462294 29
-22.11401 -52.597206 0.11426276 32.666668
-22.109386 -52.578857 0.0502497 27
-22.101929 -52.534214 0.16227716 36
-22.051479 -52.428661 0.17657012 34
-22.100193 -52.790295 0.031692091 19
-22.110924 -52.664158 0.05041581 34
-22.020035 -52.512066 0.076150239 25.5
-22.133049 -52.528812 -0.06543839 4.5
-21.952038 -52.966412 -0.0063035502 1.5
-22.072887 -52.630543 0.051039461 31
-22.177158 -52.614082 -0.046227869 5
-21.955162 -52.503338 -0.02808708 8.5
-22.084892 -52.641571 0.00171089 30.5
-22.022587 -52.485348 0.02834725 28
-22.095959 -52.576794 0.30317843 34
-22.009094 -52.486206 0.32136023 18
-22.084042 -52.663467 0.19579846 22
-22.067608 -52.440449 0.2322107 31
-22.083099 -52.613369 0.02756441 29.666666
-22.114983 -52.574406 0.34562808 34
-22.080303 -52.807465 0.31853896 19
-21.988728 -52.491486 0.35716707 18
-22.113117 -52.604481 0.11889642 9
-21.974022 -52.551624 0.33894312 8
-22.146568 -52.688877 0.045489188 25
-22.067902 -52.431458 0.079983123 32
-22.075138 -52.608047 -0.062200669 1
-21.846363 -52.488003 -0.044049859 4
-22.066727 -52.740963 0.19630468 16
-22.024574 -52.48024 0.22162235 31.5
-22.01627 -52.542694 0.27526575 13.5
-22.060959 -52.810631 0.082407244 23
-22.101154 -52.70137 0.093193769 27
-22.047348 -52.554276 0.10669446 28
-22.110947 -52.607571 0.21274257 30
-22.065125 -52.511833 0.22256923 28
-22.072865 -52.817554 0.19073653 12
-22.034943 -52.652603 0.28015798 27.666666
-22.020061 -52.724098 0.28217977 22.5
-22.011362 -52.523689 0.28974384 31
-22.172194 -52.712547 0.22107661 22
-22.136608 -52.513798 0.23534024 32
-22.067377 -52.763611 0.018475831 14
-22.265465 -52.838509 0.01758462 4
-22.017628 -52.57251 0.02968484 18
-22.075413 -52.755936 0.086680353 27
-22.094254 -52.609104 0.095275819 31.5
-22.183168 -52.477501 0.23667806 30.5
-22.147919 -52.343292 -0.0027296499 3
-22.093718 -52.617294 0.32106972 30
-22.045738 -52.528725 0.33039284 18
-22.064558 -52.804718 0.32871413 15
-22.143581 -52.658463 0.34050727 27
-22.170771 -52.513878 0.03752416 23.333334
-21.836439 -52.302101 -0.0054479199 3
-22.114027 -52.375126 -0.0057364102 4
-22.13242 -52.66935 0.10495192 24
-22.139233 -52.488827 0.12168509 30
-22.129658 -52.736324 0.22936755 28
-22.107594 -52.648861 0.23627788 31
-22.05308 -52.518753 0.2462514 30
-22.038826 -52.78289 0.23639387 22
-22.112499 -52.556927 0.25112337 32.5
-22.046978 -52.428211 0.25788349 28
-22.123466 -52.837486 -0.00874996 8.666667
-22.108618 -52.575199 0.00517654 25
-22.028835 -52.690025 0.27054685 32
-21.925909 -52.52137 0.28073019 15
-21.974522 -52.830517 0.22667879 23.75
-21.905785 -52.621887 0.25875562 24
-22.062115 -52.758278 0.26582289 23
-22.026236 -52.504902 0.28770494 21
-22.168474 -52.593395 0.33149856 24
-22.074829 -52.42828 0.33644146 16.5
-22.241856 -52.582539 -0.00376856 9.5
-21.83897 -52.51527 -0.05025905 6
-21.936781 -52.870892 0.22211552 17
-22.101841 -52.744198 0.23682928 25
-22.044924 -52.581165 0.24891186 33
-21.932652 -52.866447 0.19078398 11
-22.116543 -52.699318 0.20484209 28
-22.088043 -52.53569 0.21301603 35
-22.013872 -52.783203 0.33303535 12
-22.10099 -52.457863 0.3604387 24.666666
-22.016748 -52.803082 0.35239178 16
-22.107769 -52.563232 0.37921149 24
-22.027948 -52.483028 0.38590771 13
-21.950016 -52.837963 0.12826771 16.5
-22.11771 -52.718571 0.14504856 31
-22.058102 -52.599003 0.15541452 33
-22.068611 -52.6982 0.094161391 27.666666
-22.072803 -52.540833 0.11187065 33
-22.040836 -52.790276 0.21614152 17.5
-22.112232 -52.595901 0.23758584 34
-22.013315 -52.811882 0.25842744 14.5
-22.069468 -52.547432 0.28837091 26
-22.036406 -52.470085 0.29575616 24
-21.977209 -52.830914 0.23738372 14.666667
-22.159164 -52.648396 0.26235044 30.5
-22.063761 -52.784664 0.16124463 21
-22.186735 -52.714394 0.17199445 25
-22.155991 -52.599411 0.18125749 28.5
-21.933002 -52.85537 0.15022111 11
-22.251999 -52.650097 0.24547905 25
-22.239723 -52.537941 0.25893444 30.5
-22.184004 -52.423012 0.27124208 32
-21.981659 -52.786102 0.21886295 20
-22.044991 -52.796551 0.27529854 23
-22.082329 -52.651894 0.29681343 32
-21.905569 -52.862682 0.26117319 19
-21.81385 -52.919201 0.14852893 20
-22.007133 -52.747257 0.18295038 26.333334
-21.865889 -52.855007 0.32989466 19
-22.07543 -52.612595 0.34830964 28.75
-22.080521 -52.763542 0.10969788 23
-22.205502 -52.700706 0.11818129 25
-22.190126 -52.590916 0.1239267 30
-21.865095 -52.88784 0.19435263 10
-22.008835 -52.789936 0.20790958 21
-22.100809 -52.543892 0.23165512 28.25
-21.83642 -52.823292 0.2241019 21.5
-21.976349 -52.655273 0.24274194 30
-21.865208 -52.844475 0.30153763 15
-22.044443 -52.685898 0.32036412 28
-21.997162 -52.540268 0.33005536 30
-22.156597 -52.816128 0.26923126 20.5
-22.278429 -52.687237 0.27501243 27
-22.228178 -52.575775 0.27501911 29
-22.027788 -52.745571 0.068918347 24
-22.073706 -52.574615 0.075995557 26
-21.944077 -52.711746 0.085106254 23.4
-21.94208 -52.445339 0.08445394 24
-22.06868 -52.626076 0.0084617101 15.5
-22.138861 -52.426876 0.0030553299 6.5
-22.018879 -52.616455 0.40107036 17.333334
-21.971373 -52.799843 0.33308506 21
-22.104309 -52.679024 0.33178043 29
-22.076963 -52.53701 0.32567167 28.333334
-22.113317 -52.65736 0.2444905 27
-22.007082 -52.726414 -0.04896909 24.333334
-22.051781 -52.525558 -0.048713509 24
-21.940472 -52.827766 0.17252457 21
-22.113819 -52.610298 0.17542231 27.5
-22.044653 -52.46225 0.17108119 26.5
-21.908079 -52.829937 0.10157734 21
-22.107683 -52.650562 0.10995871 26.333334
-22.054707 -52.505138 0.10870081 28
-22.178968 -52.775536 -0.016777631 8.5
-22.135334 -52.419048 -0.017460469 6.5999999
-22.012123 -52.755806 0.37016952 27
-22.049969 -52.658195 0.37167585 27
-22.067539 -52.59214 0.37253845 26
-22.213072 -52.534473 -0.0044666501 6.5999999
-22.04215 -52.718788 0.38154972 27
-22.072268 -52.620213 0.38274896 26.5
-22.014542 -52.738064 0.0031248301 23.5
-22.038521 -52.500816 0.00380909 15
-21.98765 -52.824642 0.13701266 24
-22.129055 -52.587856 0.14123029 27.5
-22.035315 -52.784679 0.31519979 24.5
-22.113085 -52.624939 0.31478828 28
-22.091267 -52.737747 0.3223626 26.666666
-22.077869 -52.496498 0.31616753 21
-22.082806 -52.718849 0.20240766 24.799999
-22.069149 -52.477402 0.19466859 26.5
-22.116768 -52.653347 0.10854381 26.6
-22.09112 -52.650902 0.31212378 27
-22.037663 -52.767628 0.30027777 25.666666
-21.989103 -52.453632 0.29210669 14
-21.902016 -52.806396 -0.01530671 12.2
-21.961782 -52.353718 -0.02108073 6.5
-22.051661 -52.538963 -0.01430631 18
-22.02537 -52.670681 0.38266778 16.666666
-21.994974 -52.812572 0.25360829 19
-22.103149 -52.75943 0.25551373 20
-22.093451 -52.554111 0.25080019 27.75
-22.017902 -52.816566 0.12419587 19.5
-22.15201 -52.665363 0.12494928 29
-22.101315 -52.556137 0.12058049 29
-21.985914 -52.828743 0.22596949 19
-22.043798 -52.42775 0.21879357 21
-22.141796 -52.680328 0.22714299 28
-22.089918 -52.536999 0.22242326 29
-22.059273 -52.806206 0.30939025 18
-22.136513 -52.715004 0.30956143 29
-22.120977 -52.542923 0.30577248 30
-22.015795 -52.818497 0.25632769 20
-22.114202 -52.58709 0.25438935 25
-21.956591 -52.857628 0.26707 19
-22.124512 -52.659599 0.26876801 27
-22.097898 -52.656757 0.24576479 27
-22.040909 -52.426846 0.24061829 20.5
-21.934137 -52.843498 0.12275046 19
-22.07596 -52.590626 0.12409848 25
-22.041986 -52.74094 0.00186759 11.833333
-22.003483 -52.40538 -0.00302523 6.666667
-22.030516 -52.774139 0.039407909 20.666666
-22.123592 -52.583073 0.039479431 27
-21.978462 -52.830372 0.090662122 18
-22.08662 -52.777058 0.093616597 20
-22.108591 -52.610123 0.091351628 27
-21.972733 -52.82745 0.061159551 17
-22.093853 -52.617264 0.062399331 26
-22.02928 -52.801579 0.094279468 19
-22.0979 -52.743061 0.095895469 26
-22.101171 -52.539433 0.093024909 22.5
-21.945618 -52.84341 0.098642468 14
-22.121151 -52.697445 0.10245144 27.5
-22.102882 -52.558872 0.099435449 29.5
-21.982849 -52.854527 0.14420676 10.5
-22.147236 -52.673073 0.14619374 28.333334
-22.091507 -52.529091 0.14155936 31
-22.032616 -52.79388 0.070767097 16
-22.125359 -52.63678 0.07107991 27.5
-22.10248 -52.531418 0.068208873 26
-22.078724 -52.787636 0.10962737 18
-22.14222 -52.694653 0.11035264 27.5
-22.114113 -52.554623 0.10706007 29
-22.040583 -52.811428 0.25517309 19
-22.145548 -52.724056 0.25705755 30.5
-22.131069 -52.586163 0.25471389 28.5
-22.035044 -52.815739 0.30476433 19.5
-22.126101 -52.726288 0.30623585 30
-22.142376 -52.626766 0.30557257 29
-21.946722 -52.85083 0.22122997 17.5
-22.110914 -52.770927 0.22516197 18
-22.127958 -52.569214 0.22281641 28.5
-21.898151 -52.90443 0.14462173 2
-22.070713 -52.791264 0.1481899 18
-22.11927 -52.593987 0.14613664 28.25
-21.993738 -52.832268 0.12743455 20
-22.09235 -52.573402 0.12606412 22.25
-21.947674 -52.850712 0.10145092 13
-22.043898 -52.795547 0.10402346 19
-22.098053 -52.530857 0.1018405 26.333334
-22.027632 -52.478065 0.057679951 10
-22.095118 -52.669838 0.064242177 27.333334
-21.951952 -52.691578 0.01837587 13.666667
-22.105341 -52.577145 0.021878719 27
-21.950954 -52.851536 0.090808392 15
-22.095213 -52.58181 0.089497089 23.5
-22.109493 -52.588356 0.094677091 24.5
-21.994743 -52.825798 0.060824331 20
-22.101446 -52.568275 0.058365759 24.666666
-22.025902 -52.819096 0.1563772 20
-22.12018 -52.611046 0.15427244 26.75
-22.036922 -52.411091 0.14668882 7
-22.049276 -52.806202 0.26106519 19
-22.114941 -52.594261 0.25739783 29
-22.020891 -52.392597 0.249695 4
-21.890724 -52.935429 0.21276951 1
-21.971472 -52.84367 0.21276665 19
-22.1068 -52.601147 0.21096468 25.666666
-22.04237 -52.409737 0.20452642 26
-21.919079 -52.878788 0.2060737 11
-22.112478 -52.649776 0.20700067 26.25
-22.049786 -52.418839 0.20028347 22.5
-21.902838 -52.864742 0.18255031 12
-22.083628 -52.610031 0.1849612 26.6
-22.013191 -52.367516 0.17958724 10
-22.076866 -52.765007 0.08755219 19
