# .PCD v0.7 - Point Cloud Data file format
VERSION 0.7
FIELDS x y z intensity
SIZE 4 4 4 4
TYPE F F F F
COUNT 1 1 1 1
WIDTH 1379
HEIGHT 1
VIEWPOINT 0 0 0 1 0 0 0
POINTS 1379
DATA ascii
-21.657253 -57.057892 1.4973935 6
-21.586821 -57.070778 1.7001125 0.5
-21.573463 -57.07851 1.8756026 0
-21.630783 -57.073463 2.0665092 4.5
-21.645494 -57.054989 2.2466023 2.5
-21.589689 -57.073307 2.4293945 1
-21.687111 -57.073963 0.54685116 3
-21.599083 -57.056355 0.69095689 2
-21.682753 -57.071205 0.71696746 4
-21.654963 -57.066456 0.96400666 13
-21.628162 -57.053215 1.1672112 8.5
-21.680243 -57.050537 1.308762 4
-21.604942 -57.055885 1.5476456 1
-21.680252 -57.08392 1.5723156 2.333333
-21.579542 -57.079479 1.7650371 0
-21.629791 -57.062927 1.9510282 2
-21.614456 -57.068684 2.1769636 1.5
-21.664555 -57.04855 2.1814494 4
-21.67182 -57.062275 0.58020473 3
-21.621607 -57.052341 0.7364378 5.333333
-21.642082 -57.056263 0.99827731 7
-21.650494 -57.079857 1.2157062 9.5
-21.5966 -57.05257 1.627486 3.5
-21.676641 -57.1175 1.5736648 0.5
-21.620872 -57.0466 1.7627199 7
-21.632843 -57.047806 2.2137384 4
-21.580381 -57.035503 0.47056317 37
-21.691536 -57.056549 0.67666119 2
-21.663242 -57.081985 1.7963917 0
-21.714121 -57.065895 1.9377484 1.5
-21.69899 -57.119164 2.0853896 8
-21.724575 -57.048195 2.1615462 3
-21.651602 -57.108742 2.2581301 0
-21.665649 -57.079624 2.3458195 0
-21.688374 -57.083138 0.57867473 2
-21.620987 -57.060379 0.73236871 2.666667
-21.649286 -57.046925 0.99494743 16
-21.660683 -57.055862 1.2107488 11
-21.63916 -57.075249 1.5957775 2.666667
-21.702755 -57.11697 1.6183547 1
-21.586948 -57.062634 1.8012031 0.5
-21.584507 -57.060467 1.9339401 0
-21.624731 -57.047829 2.0281825 3
-21.599407 -57.067303 2.1655869 0.5
-21.599886 -57.060215 2.349463 0.5
-21.583834 -57.078896 1.3123246 2
-21.589664 -57.093761 1.5746938 1
-21.623623 -57.038376 0.65661085 10
-21.604809 -57.061459 0.95120823 6
-21.583176 -57.08963 1.6499971 0.33333299
-21.582264 -57.045162 2.1102059 4
-21.580532 -57.04409 2.245105 4
-21.629665 -57.070267 0.47361809 3
-21.626875 -57.088062 0.81584036 4
-21.651043 -57.10054 1.5072101 1
-21.590225 -57.074566 1.6061354 3
-21.586094 -57.106758 2.0283351 8
-21.623926 -57.054165 2.1102707 3
-21.59837 -57.045357 2.2870665 4
-21.610073 -57.033566 2.3780808 4
-21.570103 -57.074203 1.2632812 8.5
-21.593872 -57.057098 0.87678444 4
-21.620092 -57.0989 1.2330849 2
-21.624254 -57.103409 1.3218067 1
-21.616838 -57.086586 1.6238244 1.5
-21.586197 -57.036095 2.2349439 4
-21.653616 -57.074345 0.57981646 3
-21.644808 -57.062813 0.66431576 3
-21.635019 -57.066299 0.83543074 6
-21.610754 -57.056229 1.0876323 7.5
-21.625948 -57.048996 1.2650313 14
-21.674587 -57.094894 1.594393 1.5
-21.625072 -57.046368 1.7030493 7
-21.628748 -57.038456 2.2027731 4
-21.570198 -57.070778 2.3406386 1
-21.661947 -57.094265 0.44711554 46
-21.708149 -57.056793 0.74335992 1
-21.709904 -57.047798 1.6083665 1
-21.709759 -57.070892 2.2493992 1
-21.722767 -57.04015 1.1556737 11.5
-21.704916 -57.043415 1.7581271 3.5
-21.678053 -57.050373 1.9767542 2
-21.7115 -57.036877 2.1642735 3
-21.615917 -57.049332 0.71987271 2
-21.697437 -57.055561 0.65932697 3
-21.692015 -57.06039 0.82868111 4
-21.684544 -57.051945 1.166261 9
-21.723228 -57.087257 1.2671512 1
-21.722776 -57.091702 1.5705138 1
-21.620459 -57.047588 1.5786246 1
-21.615379 -57.064705 1.9355183 1
-21.601215 -57.058727 0.67687213 2.5
-21.598795 -57.059517 0.88914216 11
-21.580835 -57.052376 1.0533382 8
-21.645403 -57.11467 1.2500049 1
-21.649282 -57.099121 1.5516187 1
-21.582636 -57.052845 1.6994338 3
-21.571259 -57.024963 0.61070406 19
-21.724943 -57.027092 0.49851751 45
-21.704599 -57.139324 0.65474498 42
-21.637896 -57.052391 0.53897136 4
-21.652227 -57.027348 0.62928402 3
-21.577072 -57.056416 0.86547744 5
-21.636349 -57.087994 1.3112336 1
-21.625317 -57.087029 1.5241371 1.5
-21.566074 -57.040962 1.7196544 5
-21.56464 -57.039585 2.0738585 3
-21.584284 -57.043118 2.1695313 4
-21.70121 -57.051476 0.54745644 3
-21.594883 -57.06057 0.64894748 2
-21.658628 -57.051712 0.87759656 7.666667
-21.576084 -57.080021 1.0300995 1
-21.600183 -57.021587 1.2007172 1
-21.708693 -57.104156 1.3174791 1
-21.700768 -57.083847 1.5703673 2
-21.580313 -57.063766 1.6299984 0
-21.677713 -57.059662 1.6913033 4.5
-21.606451 -57.063301 1.8969758 2
-21.633347 -57.049923 2.1214256 3
-21.584665 -57.072895 2.3028612 0.5
-21.60556 -57.056553 2.5356133 1
-21.674479 -57.047234 2.44838 3
-21.67293 -57.071106 0.58394498 3
-21.670496 -57.069553 0.66844702 3
-21.578234 -57.065002 0.73304909 1
-21.567463 -57.06908 1.0277127 1
-21.681795 -57.092529 1.2634848 2
-21.68964 -57.128155 1.5260688 0
-21.634338 -57.049545 1.6752269 8
-21.569393 -57.067005 1.9295907 0
-21.639135 -57.047329 1.8480284 7
-21.646713 -57.046249 2.0692997 4.5
-21.595177 -57.066463 2.247849 1.5
-21.622797 -57.049686 2.4309134 2.5
-21.688505 -57.088608 0.51592749 2
-21.619802 -57.051487 0.58592844 3
-21.603951 -57.041206 0.66756219 2
-21.630365 -57.062851 0.96971315 4
-21.625637 -57.05793 1.1375417 8
-21.71254 -57.114746 1.2452137 0.5
-21.66786 -57.093639 1.5911851 0.66666698
-21.587566 -57.074963 1.731576 0.5
-21.632221 -57.053288 2.0429111 3
-21.623173 -57.060135 2.1790113 2
-21.599646 -57.06424 2.313925 1
-21.630827 -57.045853 2.405839 2
-21.688169 -57.049751 1.0525151 2
-21.674326 -57.066322 1.6911724 0.5
-21.666914 -57.075706 1.8235891 0
-21.696478 -57.048721 1.9982231 1
-21.705635 -57.046379 2.1342881 2
-21.682751 -57.053043 2.2698681 1
-21.644133 -57.032013 0.61516798 3
-21.620598 -57.050636 0.77791637 1
-21.680536 -57.047382 0.87410593 13
-21.713171 -57.072601 1.258284 5.5
-21.656927 -57.037258 1.5388614 2
-21.637445 -57.039368 1.7070525 1
-21.61035 -57.071037 1.8395107 0
-21.672907 -57.040661 2.0614636 2.666667
-21.617441 -57.060253 2.2390995 1
-21.683798 -57.06308 0.60316133 2.5
-21.59622 -57.045578 0.75302839 1.5
-21.646652 -57.045376 1.0538528 15
-21.672644 -57.052372 1.2255269 5
-21.697927 -57.088711 1.4019408 1.5
-21.593531 -57.049809 1.5482452 1
-21.689642 -57.079491 1.610911 1.5
-21.58239 -57.071999 1.8088357 0
-21.625498 -57.035599 1.7215509 2
-21.672428 -57.051044 2.079937 3
-21.590223 -57.071148 2.164701 1
-21.616041 -57.052795 0.53424323 3
-21.598093 -57.047604 0.78136623 9
-21.593349 -57.062603 0.86373794 10
-21.591045 -57.052975 1.1538707 16
-21.643904 -57.125866 1.2962584 0
-21.644672 -57.099571 1.5898583 1
-21.588757 -57.04921 1.9597425 12
-21.582109 -57.063431 0.55498618 3
-21.57601 -57.061218 0.80512112 5
-21.573835 -57.064278 0.8879981 6
-21.611044 -57.106304 1.3165412 1
-21.606392 -57.095657 1.5679548 1
-21.568792 -57.05209 1.7250057 6
-21.572025 -57.075516 0.61294854 2
-21.569309 -57.076771 1.2388147 3
-21.587648 -57.110043 1.3300022 1
-21.588945 -57.141869 1.5038728 1
-21.587065 -57.104362 1.6260203 1.5
-21.578226 -57.084465 1.1992595 3
-21.586363 -57.095707 1.2861761 2
-21.584593 -57.101582 1.4562716 2
-21.569715 -57.101772 1.5606656 1
-21.582428 -57.135963 1.3136148 1
-21.577885 -57.117214 1.6095326 1.5
-21.588661 -57.106995 0.58933926 2
-21.568516 -57.090137 0.92427021 5
-21.597765 -57.115395 1.2719586 2
-21.604889 -57.130627 1.532558 1
-21.591383 -57.101479 1.6108528 2
-21.587872 -57.123009 1.2963399 1
-21.58964 -57.110416 1.5113512 1
-21.61058 -57.093555 0.59849852 3
-21.582279 -57.076721 0.84888691 10
-21.606998 -57.088226 0.98599762 5.5
-21.632496 -57.129707 1.3003749 1
-21.597664 -57.077305 1.6308073 4.333333
-21.637402 -57.093365 0.60145921 4
-21.577175 -57.078495 0.75509089 4.333333
-21.605244 -57.088516 1.0252552 5
-21.634125 -57.117599 1.2979075 1
-21.585104 -57.070892 1.1466721 8.5
-21.629267 -57.107094 1.6021109 1.5
-21.576639 -57.063725 2.25525 3
-21.592913 -57.059551 2.4480121 3
-21.600426 -57.095425 0.60127437 3
-21.567263 -57.073936 0.85123086 11
-21.618568 -57.136497 1.3092082 0
-21.575846 -57.073711 1.6371965 3
-21.569374 -57.060402 2.3142629 3.5
-21.63121 -57.086937 0.58494604 6
-21.592281 -57.07679 1.1766882 9
-21.637781 -57.133503 1.2848878 0
-21.615393 -57.108406 1.5810387 2
-21.592894 -57.076225 1.8334661 4
-21.577362 -57.069294 2.2855794 3.5
-21.618061 -57.040524 0.69724548 17.5
-21.635204 -57.109627 1.2296064 1
-21.634226 -57.116745 1.3181469 1
-21.638823 -57.105995 1.5389928 1
-21.581459 -57.054585 1.7769434 6
-21.581657 -57.048599 2.1403508 3.5
-21.595732 -57.082245 0.64258552 2
-21.642361 -57.091984 0.87986922 3
-21.605848 -57.064571 1.1698185 17
-21.651262 -57.106281 1.3230557 2
-21.638687 -57.090202 1.5821317 2.5
-21.613705 -57.067631 1.7480955 4.5
-21.62579 -57.064983 2.2121191 3.5
-21.589548 -57.074104 0.59377539 2
-21.625154 -57.074066 0.81211603 7
-21.601778 -57.0695 1.1093367 12
-21.659773 -57.140984 1.2719147 1
-21.644426 -57.08606 1.3462865 3
-21.645086 -57.096527 1.5705529 2
-21.590172 -57.073372 1.7269237 4.5
-21.583702 -57.073524 2.187839 2.5
-21.594099 -57.070351 2.3338923 2
-21.600891 -57.085247 0.63104856 2.333333
-21.642729 -57.103756 0.91044629 2
-21.586884 -57.070675 1.10559 12.5
-21.638803 -57.11504 1.3048682 2
-21.632826 -57.102325 1.5669137 2
-21.591745 -57.063 1.6785138 6
-21.58169 -57.061672 2.1802297 3
-21.578541 -57.071297 0.82985449 7
-21.61824 -57.131405 1.3334678 0
-21.583155 -57.064827 1.5757909 3.5
-21.573877 -57.063965 1.7513738 4.5
-21.566502 -57.058704 2.1612935 4
-21.586626 -57.06702 0.61445403 5
-21.597662 -57.079468 0.61875725 3
-21.599039 -57.073814 0.79400146 3
-21.568064 -57.0667 1.0440403 9.333333
-21.627644 -57.131432 1.2479473 0
-21.588179 -57.062595 1.3120933 8
-21.568653 -57.103863 1.5347192 1
-21.591457 -57.069992 2.1264627 3
-21.617537 -57.074173 0.63298178 2.5
-21.591288 -57.062435 0.79803503 9.5
-21.610657 -57.070488 1.110716 4
-21.622282 -57.077785 1.2909045 2
-21.63546 -57.129253 1.5711529 1
-21.593502 -57.062599 1.7226024 5
-21.601141 -57.05204 2.1820045 4
-21.631945 -57.060127 0.6039989 4
-21.623884 -57.05719 0.82026041 6.5
-21.630421 -57.055195 1.1279671 6
-21.641914 -57.063248 1.2205482 3
-21.663103 -57.131817 1.5952997 0
-21.579132 -57.060001 1.6873057 2
-21.607773 -57.048702 2.1529837 2.5
-21.599981 -57.047371 0.70556325 5
-21.652172 -57.067238 0.85636848 3
-21.627138 -57.05587 1.0643153 10
-21.568924 -57.056427 1.2192502 1
-21.668661 -57.115421 1.2612867 1
-21.669123 -57.10873 1.5714092 1
-21.651503 -57.049084 0.65228677 14.666667
-21.696884 -57.117298 1.2267491 0
-21.623686 -57.066841 1.1516569 5
-21.684029 -57.108437 1.5755436 1
-21.613056 -57.051151 1.5407362 2
-21.638617 -57.058182 1.7730385 6
-21.573214 -57.077576 1.9405947 0
-21.633322 -57.058304 2.1381369 3.5
-21.581556 -57.06934 2.3650115 1
-21.656027 -57.041283 0.53216749 2
-21.618736 -57.04512 0.73750073 10
-21.613436 -57.03904 0.86574847 15
-21.637674 -57.055901 0.96282738 5
-21.603806 -57.051697 1.0811853 6.5
-21.585257 -57.040272 1.555879 2
-21.649986 -57.086136 1.5858474 2.666667
-21.579065 -57.057426 1.781616 3.5
-21.624283 -57.037888 2.1099315 4
-21.619957 -57.046349 2.2057416 4
-21.617083 -57.042892 2.3948095 3
-21.571869 -57.052689 0.56808949 2.5
-21.631052 -57.109589 1.2983031 0
-21.572292 -57.061615 1.1834079 16
-21.610823 -57.074253 1.3741826 2
-21.611843 -57.089306 1.5994685 1
-21.607536 -57.017208 0.53495556 3
-21.573727 -57.060272 0.83015239 6
-21.567831 -57.055851 0.95869076 8
-21.568045 -57.058605 1.1338568 8
-21.601757 -57.096291 1.281476 1.5
-21.601681 -57.09663 1.5029868 2
-21.579657 -57.053833 2.1202703 3
-21.594784 -57.069115 0.63035548 3
-21.585245 -57.054901 0.80212986 6.5
-21.62982 -57.099854 1.3025528 0
-21.573532 -57.047035 1.5396813 8
-21.567877 -57.045803 1.7601374 7
-21.574789 -57.04866 2.1275878 3.5
-21.575375 -57.061504 0.66339111 2
-21.582899 -57.064484 0.97061169 11
-21.587204 -57.06794 1.1455638 9
-21.591333 -57.065609 1.2331854 7
-21.590902 -57.103878 1.5601485 0.66666698
-21.583509 -57.064648 1.7126436 5
-21.608643 -57.074394 0.521842 3
-21.581059 -57.05648 0.77338517 10
-21.578972 -57.067062 1.1185455 11
-21.597048 -57.072407 1.2107277 4
-21.569611 -57.089806 1.5100982 0.5
-21.624355 -57.14209 1.5796437 0
-21.574877 -57.06263 1.6384052 7
-21.565599 -57.056061 2.1287971 3.5
-21.592724 -57.051285 0.85100377 9
-21.590502 -57.045017 1.2369071 6
-21.620512 -57.086952 1.5121872 2
-21.606783 -57.040619 0.47286499 4
-21.659399 -57.076103 0.62165511 4
-21.651497 -57.064613 0.74944788 4
-21.632004 -57.05851 1.0016999 13
-21.680172 -57.121246 1.196601 1
-21.669462 -57.091839 1.5383226 2
-21.648497 -57.074394 1.6611226 4
-21.630011 -57.062122 1.965646 5
-21.576296 -57.079842 2.0934749 1.5
-21.589912 -57.064152 2.231236 2
-21.649998 -57.062618 2.341279 3
-21.580379 -57.078522 2.4731851 1
-21.68586 -57.01297 0.51480627 15
-21.654495 -57.067917 0.80823815 9
-21.642159 -57.064735 1.1933634 15
-21.628527 -57.071213 1.6282578 3.666667
-21.606186 -57.074238 1.8457351 3.5
-21.614584 -57.076317 2.0308285 2
-21.61857 -57.062534 2.2133131 2.5
-21.57135 -57.097656 2.3554983 0
-21.641665 -57.056141 2.4557848 3
-21.660645 -57.086685 0.58375901 3
-21.599792 -57.0793 0.73796749 2
-21.665571 -57.090893 0.93474889 2
-21.621389 -57.054256 1.0905397 14
-21.689419 -57.077324 1.2014666 0
-21.646912 -57.083679 1.6270143 3
-21.57202 -57.06926 2.0530634 1
-21.606026 -57.051987 2.1966276 3.5
-21.637793 -57.080589 0.5532217 3
-21.644764 -57.061211 0.64324236 3
-21.623386 -57.055534 0.8958329 10
-21.601286 -57.056271 1.1483754 9
-21.672098 -57.127815 1.2668641 0
-21.654236 -57.095299 1.6087916 2.333333
-21.619734 -57.051311 2.1769304 4
-21.59296 -57.059639 0.76998675 7
-21.630007 -57.12281 1.2242186 1
-21.616297 -57.015797 1.2920507 4
-21.589924 -57.079052 1.5877321 2
-21.579666 -57.05183 2.1379266 3
-21.580229 -57.037842 0.57587743 9.5
-21.591797 -57.125271 1.5036495 1
-21.565809 -57.064896 1.5733436 2
-21.564457 -57.056824 2.1106629 3
-21.589607 -57.014603 0.54356545 8.5
-21.567862 -57.053825 0.92914379 13
-21.613892 -57.089302 1.2956136 2
-21.617805 -57.115875 1.6540835 0
-21.590691 -57.052067 0.56502163 6
-21.647528 -57.068665 0.67220092 3
-21.649527 -57.086266 1.5915071 1.5
-21.595428 -57.054527 1.7025039 4
-21.599079 -57.049755 1.7916577 7
-21.602028 -57.04557 2.2007251 3.5
-21.611092 -57.045597 2.3433998 4
-21.66143 -57.082291 2.4665015 2
-21.601995 -57.064281 0.58409441 9
-21.586195 -57.079472 0.66635388 3
-21.59469 -57.111168 1.2838107 1
-21.583418 -57.102837 1.5871841 2
-21.565916 -57.041054 1.2877765 3
-21.572826 -57.0858 1.6025273 1
-21.625938 -57.063793 0.52635288 33
-21.579397 -57.070435 0.77232891 4
-21.57209 -57.059452 0.85639441 8
-21.603926 -57.122906 1.217618 1
-21.608446 -57.117962 1.3924942 1
-21.565554 -57.044941 1.5864944 6
-21.61244 -57.085213 0.58654141 4
-21.605715 -57.037178 0.49836099 7
-21.628445 -57.133183 1.374447 0.5
-21.568453 -57.086163 1.5840327 1.666667
-21.591177 -57.067074 1.7913562 4
-21.577127 -57.064594 2.0559378 5
-21.564346 -57.056171 2.187614 3
-21.620974 -57.077759 2.4423854 2
-21.63442 -57.092587 0.55573595 3
-21.630886 -57.074272 0.64146239 4
-21.601864 -57.059841 0.80510497 11
-21.596874 -57.066761 0.97568476 14
-21.608604 -57.09618 1.1533825 3.5
-21.650949 -57.125885 1.5594785 0
-21.593756 -57.058495 1.7513438 6
-21.580444 -57.059906 2.1523447 2.5
-21.569696 -57.057819 2.3819413 2
-21.639025 -57.072334 0.57475775 3
-21.600042 -57.060692 0.82169831 12
-21.659983 -57.116344 1.2735142 1
-21.653328 -57.095684 1.52929 2
-21.61129 -57.051365 2.0866079 3.5
-21.589617 -57.046257 2.2172751 3
-21.672182 -57.088535 0.60885096 3
-21.651955 -57.07917 0.81836182 6.666667
-21.650145 -57.074467 0.98875618 8
-21.661758 -57.089149 1.2077188 3.5
-21.684799 -57.136524 1.5242167 1
-21.633133 -57.088306 1.6555825 3.25
-21.564543 -57.095512 2.0213413 3
-21.636528 -57.066971 2.1203182 4
-21.586052 -57.084274 2.2535589 1
-21.579912 -57.083294 2.441092 0.5
-21.589298 -57.066944 0.63635331 3.5
-21.59226 -57.105118 1.2819959 2
-21.598724 -57.110901 1.5436366 1
-21.580776 -57.091175 1.4364178 1
-21.651825 -57.069088 0.59743553 2
-21.632341 -57.061275 0.93770623 5
-21.657799 -57.109806 1.2928121 1
-21.659634 -57.118038 1.5544631 1
-21.646227 -57.088825 1.676847 1.5
-21.624588 -57.059708 2.153053 3
-21.576748 -57.052162 2.3223162 2
-21.602854 -57.051235 2.2364674 4
-21.590086 -57.067135 2.710742 2
-21.565727 -57.095329 1.1650931 1
-21.631283 -57.035301 0.60868788 3.5
-21.585236 -57.0597 0.81008315 3.5
-21.629389 -57.093414 1.2945764 1.5
-21.636539 -57.103138 1.644183 0.5
-21.573549 -57.046619 1.8373076 8
-21.610846 -57.072857 0.54626292 5
-21.639418 -57.108635 0.64010584 2
-21.579422 -57.059586 0.79489273 8
-21.644575 -57.113171 1.1563938 2
-21.648621 -57.126575 1.5491645 0.5
-21.574015 -57.115887 2.0210114 7
-21.601852 -57.052517 2.1450629 4
-21.648733 -57.075642 0.59479874 3
-21.58325 -57.078629 0.79175693 7
-21.639668 -57.036865 1.22439 12.5
-21.62015 -57.067608 1.6932949 8
-21.663858 -57.100151 1.5788842 2
-21.5711 -57.080517 1.8177909 3
-21.599216 -57.066193 2.0407197 3
-21.578455 -57.06625 2.1266866 1
-21.579432 -57.089149 2.364054 1.5
-21.609135 -57.066315 0.57833385 5
-21.617813 -57.067142 0.75011367 6.5
-21.610834 -57.060143 1.0014714 8
-21.64422 -57.110203 1.222886 1.5
-21.638544 -57.085648 1.3463264 2
-21.605877 -57.054321 1.6341722 5.5
-21.643627 -57.100788 1.5202147 1
-21.5767 -57.048779 2.0197554 3
-21.694128 -57.014034 0.50814134 13
-21.671629 -57.088303 0.62661278 3
-21.612337 -57.06662 0.82480037 5
-21.681166 -57.111443 1.0931098 3
-21.672026 -57.093021 1.25809 3
-21.664951 -57.092941 1.5539513 5
-21.578957 -57.086147 1.7107427 1
-21.563305 -57.104195 1.8434783 0
-21.659872 -57.070534 1.9381733 3
-21.62833 -57.065876 2.0203125 4
-21.625273 -57.065792 2.1095181 3
-21.566545 -57.097759 2.2467756 0
-21.602926 -57.050465 0.5540877 7
-21.566341 -57.065926 0.78436393 4
-21.588612 -57.063931 1.0829916 8
-21.626707 -57.079708 1.1759986 5
-21.6546 -57.101574 1.523572 2
-21.590334 -57.098289 1.6413633 1
-21.614254 -57.062714 2.0324543 5
-21.64595 -57.076221 0.63142085 2.5
-21.61908 -57.062771 0.83686578 10
-21.613632 -57.063248 1.0037149 7
-21.616447 -57.051498 1.2135352 12
-21.632288 -57.057648 1.3440063 7
-21.665876 -57.13353 1.5309861 1
-21.604549 -57.053719 1.6789182 6
-21.579966 -57.069019 1.8079705 4
-21.569483 -57.075676 1.9835513 2
-21.634968 -57.068283 0.55666244 3
-21.610893 -57.055733 0.80493706 8
-21.600922 -57.07946 1.0001248 4.666667
-21.607859 -57.078129 1.2269936 1.5
-21.604523 -57.052227 1.5630345 9
-21.636684 -57.081409 1.6610739 2
-21.600204 -57.048561 2.0421348 10
-21.61076 -57.06686 0.5760932 3
-21.612713 -57.066792 0.87397945 8
-21.64992 -57.116192 1.2262046 2
-21.654179 -57.133266 1.3151696 1
-21.652229 -57.110565 1.6136594 1.5
-21.61128 -57.060711 2.0800915 5
-21.609217 -57.089012 0.56478477 2
-21.578478 -57.004772 0.4739238 9
-21.565563 -57.078247 0.68117416 2
-21.581114 -57.073372 0.81244391 10
-21.584927 -57.069733 0.98219419 11
-21.575211 -57.060417 1.1483483 17
-21.60778 -57.081387 1.2433667 3
-21.623829 -57.117245 1.5092688 1
-21.629059 -57.128326 1.5998757 1
-21.596624 -57.057884 2.0189502 4
-21.58342 -57.05117 0.78730345 8
-21.600149 -57.070534 0.96067458 6
-21.612001 -57.068474 1.3014442 3
-21.621363 -57.081505 1.6046886 1.5
-21.662273 -57.03944 0.52900916 3
-21.634249 -57.073021 0.60527056 3
-21.642248 -57.082169 0.69227397 2
-21.614717 -57.059208 0.77012253 9
-21.630314 -57.06192 1.0264319 7
-21.630514 -57.083149 1.1975303 4.5
-21.660326 -57.1217 1.551797 1
-21.662514 -57.095337 1.6345257 1
-21.568153 -57.061188 1.8275536 1
-21.633888 -57.064613 0.62261176 2.5
-21.574358 -57.053894 0.77696037 5
-21.612871 -57.053238 0.9975605 7
-21.637154 -57.084084 1.2601095 2.333333
-21.643326 -57.085636 1.5187688 2
-21.585619 -57.046947 1.6291246 5
-21.646009 -57.06739 0.57619399 14.5
-21.59544 -57.074291 0.77438366 10
-21.587358 -57.06691 0.94069898 16
-21.576433 -57.06921 1.1075568 12
-21.641018 -57.136951 1.4732745 1
-21.604504 -57.061539 1.6251168 4
-21.601955 -57.055862 1.8867805 5
-21.582113 -57.053123 1.9720364 4
-21.642929 -57.077953 0.51608622 2
-21.641901 -57.098835 1.2354339 2.5
-21.642807 -57.085308 1.5762093 1.5
-21.578281 -57.0495 1.9509068 3
-21.655819 -57.073551 0.59640002 2
-21.573736 -57.045326 0.70388746 3
-21.639027 -57.067055 0.93178236 5
-21.657116 -57.112823 1.3212316 1
-21.664047 -57.111504 1.5805045 0.5
-21.635044 -57.067814 1.7403815 3
-21.649534 -57.057323 0.52537489 3.5
-21.58519 -57.062977 0.80543369 8
-21.652559 -57.120728 1.1649964 1
-21.668238 -57.095371 1.2513999 0
-21.64953 -57.100914 1.5052342 2
-21.652525 -57.123249 1.5973349 1
-21.610813 -57.057693 1.9717052 7
-21.598724 -57.068523 0.60415184 3
-21.632519 -57.101097 1.2524018 1.5
-21.633871 -57.103752 1.5543313 1
-21.642521 -57.107227 1.6440341 0
-21.60149 -57.048214 1.9752296 4
-21.565048 -57.105663 2.0744412 9
-21.583658 -57.049126 0.52414685 3
-21.613153 -57.063976 0.78625369 4
-21.662395 -57.097446 0.96922827 2
-21.585476 -57.063759 1.1184101 4
-21.66736 -57.112961 1.2700448 1
-21.650534 -57.082352 1.6062844 2
-21.582891 -57.055099 1.9829569 2
-21.607422 -57.07843 0.56223661 2
-21.569098 -57.061913 0.80725312 4.333333
-21.632904 -57.130726 1.2538521 0
-21.630222 -57.119602 1.5104136 1
-21.587305 -57.0611 1.6637728 6
-21.597118 -57.053688 1.5783626 5
-21.611557 -57.076664 0.61162162 2.5
-21.616497 -57.087193 1.2936196 4
-21.628845 -57.113777 1.515986 1
-21.594597 -57.064022 1.6295958 5
-21.565182 -57.049122 1.7504294 9
-21.653692 -57.064388 0.56732714 2
-21.633385 -57.06435 0.73151416 5.5
-21.661978 -57.101803 1.0818899 2
-21.642345 -57.065716 1.2437108 4
-21.666952 -57.095802 1.5563337 1
-21.599621 -57.051723 1.7513535 4
-21.624195 -57.069771 0.67181337 3
-21.594267 -57.062618 0.83361185 7
-21.587702 -57.054981 0.91664839 13
-21.63155 -57.099583 1.1035125 2
-21.634966 -57.130585 1.2800235 0
-21.639271 -57.117065 1.5414231 1
-21.56982 -57.066742 1.6682436 2.25
-21.596605 -57.060665 0.57207328 2
-21.60021 -57.073818 0.65858674 2
-21.583055 -57.076111 1.2519048 4
-21.577847 -57.061829 1.3345993 4
-21.615425 -57.129536 1.5289266 0
-21.574022 -57.06292 0.59119564 2
-21.579208 -57.11314 1.5374687 1
-21.591923 -57.07869 0.60047305 2
-21.577429 -57.062412 0.7245779 4.5
-21.575157 -57.068069 0.93669057 6.333333
-21.608931 -57.099648 1.591742 1
-21.719616 -57.146072 0.54753661 31.5
-21.637922 -57.065624 0.65428615 3
-21.615366 -57.06308 0.90328866 6
-21.608221 -57.0242 1.2373052 15
-21.650169 -57.11496 1.5626564 1
-21.605139 -57.052944 1.7144651 5
-21.618599 -57.077892 0.54352748 2
-21.623411 -57.079327 0.63105154 3
-21.595959 -57.058483 0.79421014 7
-21.61569 -57.079395 1.1002871 4.5
-21.637194 -57.127674 1.3281368 0
-21.596134 -57.057671 1.5665262 6
-21.577343 -57.050323 1.7351918 7
-21.58889 -57.049164 1.6503552 7
-21.574654 -57.059059 2.0967689 3
-21.617781 -57.097092 0.54783916 18
-21.575403 -57.052002 0.96363026 9
-21.612316 -57.09079 1.0639665 2
-21.567568 -57.052952 1.1328031 14
-21.610025 -57.103386 1.2812566 1.5
-21.57959 -57.065536 1.5714223 4
-21.570784 -57.060123 1.6999784 5.5
-21.578163 -57.091057 0.58226776 2
-21.59487 -57.13475 1.2391409 0.5
-21.594439 -57.122253 1.5433793 1
-21.589607 -57.098259 1.6256337 2
-21.615604 -57.083054 0.59505647 2
-21.585901 -57.058926 0.80089509 8
-21.603077 -57.068741 0.97922534 4
-21.62805 -57.111107 1.2518687 1
-21.631742 -57.120079 1.5177308 0
-21.61718 -57.074242 1.5930492 2
-21.581514 -57.053967 1.7552056 7
-21.579046 -57.064728 0.65705156 3
-21.590326 -57.100471 1.316191 2.5
-21.583406 -57.085884 1.5749902 2
-21.609207 -57.061394 0.7773512 4
-21.598173 -57.057713 0.85991275 7
-21.588966 -57.056282 1.1159809 12
-21.626535 -57.093586 1.3952078 2
-21.605989 -57.070045 1.5600828 3
-21.583311 -57.030247 0.46754134 6
-21.635489 -57.071918 0.61454344 3
-21.57143 -57.063026 0.76647818 2.5
-21.591431 -57.050728 1.159085 17
-21.65073 -57.115318 1.2712965 0
-21.644125 -57.120586 1.5331143 1
-21.64052 -57.08897 1.6142231 1
-21.593842 -57.038612 2.1287093 4
-21.636438 -57.055367 0.54369402 2
-21.605951 -57.049572 0.79286581 9
-21.568459 -57.041901 1.1671546 4.5
-21.652393 -57.1194 1.2441783 0
-21.652912 -57.103363 1.5041687 1
-21.617832 -57.061516 1.618432 3.5
-21.574518 -57.041836 2.1890922 2
-21.617531 -57.060989 0.59945333 3
-21.600712 -57.06583 0.72332257 5.5
-21.587406 -57.060314 0.84817731 8
-21.627693 -57.09811 1.2947148 1
-21.616158 -57.081059 1.594124 1.5
-21.565062 -57.052811 1.7514588 3.5
-21.580761 -57.054981 2.0718951 5
-21.568697 -57.054108 0.77780944 5
-21.598896 -57.088459 1.0485294 2
-21.603659 -57.113609 1.4025618 0.5
-21.56567 -57.055916 1.4368554 6
-21.595491 -57.121819 1.6345444 0
-21.620461 -57.069386 0.78435147 3
-21.615168 -57.084068 1.1763291 6.5
-21.636656 -57.094429 1.492667 2
-21.638535 -57.088814 1.5811073 2
-21.601986 -57.051556 2.2008803 4
-21.578539 -57.066185 0.61000043 3
-21.595963 -57.103149 1.5430818 1
-21.572992 -57.07933 1.6652508 3.5
-21.604424 -57.044514 0.59689164 5.5
-21.581831 -57.052452 1.1574471 6
-21.580544 -57.057278 1.245206 6
-21.61165 -57.101086 1.5730956 1
-21.567017 -57.04649 2.1854954 4
-21.597712 -57.04406 0.58858973 10.666667
-21.591656 -57.048012 0.83414745 12
-21.589417 -57.058308 1.0520483 5.666667
-21.597164 -57.072189 1.2310944 2.5
-21.603716 -57.07465 1.6764666 5.666667
-21.592203 -57.064842 0.6259706 2.333333
-21.594866 -57.047249 0.97445714 14
-21.597925 -57.05476 1.2367018 9
-21.651827 -57.087082 1.5226899 0
-21.616974 -57.090729 1.6904396 3
-21.596142 -57.037251 2.2200742 4
-21.564405 -57.046638 2.3097954 3
-21.598309 -57.053448 0.80721718 10
-21.565937 -57.037579 1.0986315 4
-21.64481 -57.105995 1.263258 0.5
-21.620876 -57.074402 1.5150825 4
-21.609213 -57.049107 2.1393626 4
-21.624306 -57.059853 0.64097565 6.5
-21.647699 -57.139668 1.2219535 0
-21.627264 -57.078266 1.558742 2
-21.608234 -57.048679 1.6801782 5.5
-21.600756 -57.036942 2.17448 4
-21.630169 -57.076851 0.62425321 3
-21.601259 -57.052052 0.91798842 11
-21.648209 -57.119862 1.2003742 0
-21.644897 -57.104443 1.5494987 1
-21.620726 -57.06601 1.6678042 4
-21.606733 -57.050201 2.1597567 5
-21.59305 -57.048656 2.2497566 3
-21.638161 -57.071953 0.59816933 3
-21.603613 -57.052711 0.76002544 9
-21.612526 -57.061432 0.89342368 6
-21.593145 -57.058117 1.161787 6
-21.646622 -57.116776 1.4802759 0
-21.608006 -57.077896 1.5945317 1
-21.611755 -57.047375 2.0876799 3
-21.604082 -57.074848 0.59018111 3
-21.599667 -57.04792 0.6758098 4
-21.606741 -57.113789 1.2893884 1
-21.604841 -57.099442 1.5501101 1
-21.578249 -57.07692 1.6710215 3.5
-21.625982 -57.056187 0.62132335 3
-21.591295 -57.045925 0.82664657 11
-21.595669 -57.057201 1.0449876 11
-21.600948 -57.056305 1.2201012 9.5
-21.640354 -57.103428 1.5463746 1
-21.613277 -57.078678 1.6668655 3.5
-21.579329 -57.037838 2.1468012 4
-21.618378 -57.060223 0.56321412 3
-21.622606 -57.048622 0.65248215 4
-21.579857 -57.055599 0.81225073 9
-21.578148 -57.051342 1.0287336 7.5
-21.620108 -57.097412 1.2664456 2
-21.621275 -57.104691 1.5335865 1
-21.568914 -57.067585 1.6291306 2.666667
-21.604958 -57.069485 0.63026381 4
-21.568649 -57.057919 0.79173648 9.5
-21.609007 -57.116924 1.2459443 1
-21.605776 -57.098698 1.5508738 2
-21.579636 -57.051334 1.8911252 3
-21.594414 -57.082962 1.1688315 2
-21.574415 -57.01646 1.2841439 8.5
-21.592604 -57.077835 1.5601375 2
-21.63686 -57.088783 0.57058889 3
-21.577221 -57.05711 0.68243212 3
-21.596111 -57.045502 0.99006069 13
-21.588783 -57.049511 1.1604067 17
-21.638758 -57.099377 1.2676328 1
-21.578176 -57.072823 1.5534855 0.5
-21.598246 -57.046619 1.6855657 6
-21.636587 -57.111553 1.6208977 1
-21.573929 -57.049702 0.66397572 4
-21.609907 -57.056953 0.8483882 9
-21.653446 -57.128044 1.2142234 0
-21.601171 -57.050617 1.5375115 8
-21.61426 -57.048252 2.1247091 3.5
-21.668791 -57.066936 0.62113839 3
-21.663235 -57.064571 0.79257733 3.5
-21.686211 -57.126522 1.2818937 1
-21.691013 -57.097191 1.5419787 1
-21.630541 -57.065975 1.6372489 3.333333
-21.59288 -57.069614 1.8221691 4.5
-21.575071 -57.074165 2.0002489 0.5
-21.625416 -57.039093 2.1407349 3
-21.572235 -57.081242 2.235239 1
-21.649675 -57.07296 0.60527098 3
-21.613626 -57.04739 0.72363997 3
-21.610989 -57.045776 1.1934533 18
-21.660379 -57.103622 1.3000778 1
-21.65513 -57.08477 1.6008214 1.5
-21.617281 -57.045666 1.7597172 7
-21.606529 -57.068424 0.61229503 3
-21.579914 -57.050953 0.99223989 13
-21.569212 -57.048443 1.2042704 5.5
-21.62195 -57.096577 1.5311882 1
-21.627983 -57.087597 1.6194097 1
-21.572206 -57.050026 1.7743188 6
-21.620871 -57.065159 0.58041817 2.5
-21.581297 -57.055603 0.87022877 11
-21.568935 -57.04557 0.99464184 7.5
-21.596167 -57.059799 1.1762117 7.5
-21.603376 -57.057091 1.3077576 4
-21.630648 -57.097546 1.4958335 1
-21.622972 -57.085751 1.5796382 2
-21.584845 -57.05352 0.56371433 9
-21.653847 -57.105606 1.190251 0
-21.643436 -57.089268 1.5775385 1.5
-21.571297 -57.043766 1.7704879 2
-21.627954 -57.063942 0.54900825 3
-21.571409 -57.062447 0.66158032 1.5
-21.592722 -57.051945 0.79613197 9
-21.593405 -57.044453 0.96639228 12
-21.603989 -57.053886 1.1408355 7
-21.62359 -57.071606 1.276963 3
-21.592617 -57.047478 1.5682645 8
-21.639997 -57.125462 1.5061042 0
-21.581821 -57.041698 1.9630532 4.5
-21.615051 -57.075783 0.61712831 2
-21.601376 -57.06221 0.74170375 4
-21.596786 -57.055458 0.99541581 8
-21.628172 -57.103405 1.5256766 1
-21.592896 -57.054161 1.6393409 5
-21.622089 -57.075077 0.53485954 2
-21.588491 -57.055954 0.65467775 2.5
-21.607952 -57.066055 0.7875551 4
-21.635677 -57.087181 0.96523821 2
-21.607014 -57.060944 1.2550192 10.5
-21.630852 -57.097622 1.5232112 1.5
-21.570665 -57.029968 0.54191452 9
-21.60376 -57.11039 1.3224237 2
-21.578939 -57.083469 1.5286229 5
-21.575247 -57.052956 2.0069375 4
-21.604042 -57.083549 0.57473063 3
-21.585108 -57.060707 0.65544522 3
-21.602114 -57.095566 1.1384218 2
-21.604082 -57.113411 1.2719909 1
-21.606436 -57.102932 1.5787492 1
-21.573717 -57.061607 0.52340198 4
-21.605217 -57.09391 1.0968224 2
-21.607634 -57.12104 1.2749655 1
-21.608706 -57.111656 1.5372311 1
-21.611164 -57.117775 1.628258 1
-21.57501 -57.049183 1.6932951 5
-21.5644 -57.045509 1.7782646 6
-21.574194 -57.043468 0.81131923 10
-21.571665 -57.065498 1.2151151 6.333333
-21.591839 -57.078751 1.6012414 3.333333
-21.648127 -57.077862 0.63272703 2
-21.587475 -57.027367 0.74286878 4.5
-21.617413 -57.043694 0.967614 12
-21.643894 -57.069809 1.1934526 3.5
-21.646645 -57.072456 1.4124267 3
-21.618259 -57.051186 1.6196523 2.5
-21.602051 -57.036068 2.0610301 4
-21.609985 -57.054413 0.60636324 5
-21.606932 -57.057522 0.86523426 8
-21.649969 -57.120724 1.2308525 1
-21.598391 -57.040546 1.5978632 8
-21.580553 -57.048134 1.7722502 4
-21.653376 -57.056881 0.58253455 3
-21.669312 -57.104774 1.1975211 2
-21.671875 -57.109047 1.2865317 1
-21.655766 -57.076572 1.5841933 2
-21.62071 -57.039734 1.7446004 5.5
-21.626913 -57.045639 2.0648637 5
-21.600817 -57.043255 2.1505861 3
-21.641218 -57.080441 0.58515835 2
-21.585903 -57.062172 0.69792962 2
-21.617752 -57.054089 0.83726382 7
-21.623396 -57.061825 1.1410471 7
-21.644846 -57.086899 1.2805463 3
-21.656067 -57.094921 1.5918847 1
-21.610626 -57.044456 1.7463889 5.5
-21.620802 -57.06361 0.55163753 2
-21.590727 -57.056942 0.80194485 10
-21.609924 -57.06181 0.93744707 6
-21.592667 -57.05151 1.1472969 14
-21.592888 -57.064335 1.2358288 2.5
-21.63818 -57.102409 1.5618265 1
-21.571106 -57.047432 1.7096592 3.5
-21.597147 -57.080288 0.59120321 3
-21.609327 -57.103275 1.2907941 2
-21.601778 -57.095825 1.5946701 1
-21.58857 -57.066486 0.53192389 3
-21.574768 -57.071926 1.3036771 3
-21.592344 -57.097984 1.4863085 1
-21.585047 -57.067337 0.5651449 4
-21.583031 -57.061043 0.77889824 4
-21.611544 -57.124855 1.3935785 1
-21.577118 -57.054844 1.5471187 4
-21.568094 -57.055489 0.53927451 5.5
-21.567368 -57.049053 1.177776 8
-21.564192 -57.093067 1.5860493 0.66666698
-21.566763 -57.039314 0.49304295 5
-21.56727 -57.063843 0.62085724 2
-21.632635 -57.091766 0.93598384 2
-21.606367 -57.056599 1.0128776 6
-21.6313 -57.091789 1.1922874 2
-21.637926 -57.105408 1.4972184 0.5
-21.643612 -57.109344 1.6305795 0
-21.566113 -57.077038 1.268458 3
-21.577812 -57.083767 1.4844933 2
-21.581772 -57.112587 1.576268 1
-21.607981 -57.062073 0.58856267 3
-21.604931 -57.071323 1.222726 3
-21.615129 -57.076206 1.3524833 2
-21.585421 -57.108116 1.3170581 0
-21.577372 -57.089069 1.4852179 1
-21.587723 -57.097298 1.6197715 0.5
-21.580545 -57.046329 0.61706316 4.666667
-21.584494 -57.048302 0.87679613 5
-21.591116 -57.08234 1.2673711 8.5
-21.603151 -57.071362 1.3989726 3
-21.602146 -57.065659 1.5709124 2
-21.569151 -57.045013 1.6461985 9
-21.575136 -57.043739 1.7353041 6
-21.648748 -57.043579 0.58193761 2
-21.628916 -57.04163 0.74895364 4.5
-21.666794 -57.040115 0.89011443 7
-21.660786 -57.050846 1.2338992 1.5
-21.685978 -57.054688 1.3283689 3
-21.673111 -57.040489 1.5836315 4
-21.591587 -57.047333 1.7408512 1
-21.642529 -57.032295 1.8396518 4
-21.58297 -57.047939 1.9182563 0
-21.617163 -57.045696 2.0636342 2
-21.596123 -57.073402 0.52871931 3
-21.587862 -57.056339 0.69960332 7
-21.597507 -57.066723 0.91799361 5
-21.575953 -57.058979 1.1254752 10
-21.616112 -57.094307 1.2266695 1
-21.5989 -57.065048 1.3045791 3
-21.59601 -57.074554 1.5658164 3
-21.580334 -57.003529 0.78688854 3
-21.641661 -57.05027 1.0581977 6
-21.612946 -57.066948 1.2642472 1
-21.570948 -57.043526 1.6367089 1.5
-21.674423 -57.117287 1.6310151 0.5
-21.57864 -57.053062 1.8579862 8
-21.589911 -57.042553 2.1692677 2
-21.684471 -57.091522 2.483721 1
-21.636299 -57.011024 0.28297502 39
-21.699028 -57.053322 0.73335642 3
-21.721731 -57.044518 0.91022807 7
-21.720848 -57.044144 1.5914949 4.333333
-21.638584 -57.060005 1.7472456 1
-21.707832 -57.037289 1.8475895 6
-21.627831 -57.080929 1.9275383 0
-21.634604 -57.069401 2.0157082 0
-21.707836 -57.037304 2.1598859 4
-21.726027 -57.087498 0.58734137 3
-21.669708 -57.063793 0.78409481 5.5
-21.659374 -57.049137 1.0781765 5
-21.666788 -57.060375 1.7242116 2.5
-21.638258 -57.054222 1.8461156 1
-21.68475 -57.056423 1.9474508 11
-21.607386 -57.086906 2.0256152 0
-21.706934 -57.052082 2.1305161 3
-21.658724 -57.052963 2.3019209 2.666667
-21.623444 -57.076096 2.4894686 1
-21.566034 -57.04631 0.7170679 2
-21.565447 -57.040791 0.88637799 3
-21.618633 -57.040802 1.0273781 14
-21.603285 -57.078453 1.2367165 1
-21.663513 -57.10582 1.6386811 0.5
-21.581221 -57.061657 2.0444183 1.5
-21.612795 -57.043797 2.2247181 4.5
-21.570099 -57.041847 2.6303363 1
-21.577068 -57.054386 0.64642256 3
-21.600731 -57.050907 0.78009081 9
-21.608786 -57.052738 1.1178018 7
-21.644709 -57.107906 1.2175351 1
-21.646454 -57.113602 1.4737395 1
-21.612167 -57.043526 1.5378062 4
-21.580462 -57.040955 1.7004898 4
-21.575417 -57.039459 2.0924258 2.5
-21.594086 -57.037243 2.3224044 3
-21.588476 -57.055622 0.5055263 2
-21.591888 -57.063412 1.5111661 2
-21.610813 -57.112785 2.0513418 2
-21.623476 -57.04747 0.56930602 2
-21.584578 -57.040863 1.6199033 4.5
-21.611546 -57.054111 1.8027822 2
-21.600212 -57.040333 1.9283378 3
-21.583525 -57.022606 0.46100867 3
-21.617868 -57.045052 0.55624557 3.666667
-21.627892 -57.049919 0.77124172 10.5
-21.61005 -57.04818 1.4880348 5
-21.655642 -57.063965 1.5886313 2
-21.662056 -57.060917 1.6769184 2
-21.653759 -57.061234 1.76267 2
-21.658199 -57.053467 2.074017 1.5
-21.577185 -57.042206 0.65711778 9
-21.607536 -57.046719 0.92448235 5
-21.597296 -57.043053 1.6917291 5
-21.622746 -57.062233 1.8761826 2
-21.628021 -57.061104 1.9659677 2
-21.622334 -57.048138 2.0503569 2
-21.62521 -57.06213 2.5137041 2
-21.655418 -57.068237 0.61168003 3
-21.613127 -57.051689 0.81552202 5.5
-21.640356 -57.052849 1.0388719 8
-21.655863 -57.077057 1.6525042 2.333333
-21.65612 -57.063389 1.870999 2
-21.657961 -57.061985 2.0512333 2
-21.664413 -57.063248 2.424634 2
-21.695026 -57.065613 0.60598296 4
-21.657005 -57.04496 0.85472107 9
-21.627499 -57.05011 1.1053506 2
-21.693687 -57.059277 1.0384023 7
-21.596561 -57.077625 1.1857827 0
-21.717978 -57.0797 1.2625716 2.5
-21.696041 -57.049019 1.9976511 3
-21.698847 -57.059216 2.0917239 3
-21.707777 -57.062664 2.3254995 2
-21.703186 -57.052288 2.5101972 2
-21.714024 -57.018238 0.46132141 11
-21.714149 -57.057766 1.196076 2.5
-21.650339 -57.058105 1.7467852 1
-21.701847 -57.03759 1.8879981 3.5
-21.68149 -57.045059 2.0654144 2.5
-21.71233 -57.05756 0.50322968 2.5
-21.721294 -57.050209 0.7653774 6
-21.653688 -57.052685 0.83251584 3
-21.698708 -57.046352 1.1013286 7.333333
-21.681719 -57.033936 1.6118528 2
-21.635714 -57.064888 1.694877 0
-21.639772 -57.058334 1.9173918 0
-21.715837 -57.041855 2.1104198 3.5
-21.629116 -57.088547 2.3389864 0
-21.578192 -57.037712 0.84716994 5
-21.616772 -57.047638 0.98625124 10
-21.646589 -57.072121 1.2531798 2.5
-21.629257 -57.058586 1.5490887 3
-21.620949 -57.057327 0.6099118 4
-21.574135 -57.035736 0.85427922 10
-21.589233 -57.03709 1.0291711 14
-21.631994 -57.072365 1.2992593 2
-21.59692 -57.045486 1.5886568 4.5
-21.588625 -57.03809 2.1606126 5
-21.639381 -57.056614 0.6062603 3
-21.595512 -57.048004 0.85136425 3
-21.62883 -57.046505 1.0735614 7
-21.629465 -57.039963 1.2434285 6
-21.66503 -57.102036 1.3452549 1
-21.658007 -57.077335 1.5566424 1.5
-21.606291 -57.069851 1.7169566 1
-21.565536 -57.046867 1.8792454 1.5
-21.625143 -57.031002 2.2030783 5
-21.603027 -57.024864 2.288456 3
-21.658028 -57.054138 0.57003093 3
-21.611361 -57.036251 0.85584295 13
-21.612188 -57.041733 1.0685225 5.5
-21.666254 -57.081001 1.2573247 1.5
-21.673052 -57.110287 1.5651197 0
-21.583715 -57.034393 1.6600339 3.5
-21.586433 -57.075943 2.0697913 5.666667
-21.705736 -57.038925 0.54091984 15
-21.650759 -57.04134 0.77976656 8
-21.666252 -57.057705 1.0386095 5
-21.594303 -57.044727 1.1878729 2
-21.692347 -57.119022 1.2217094 0
-21.68359 -57.084442 1.6031969 1.5
-21.564198 -57.071068 1.7021598 0
-21.638266 -57.030373 1.7985003 9
-21.583437 -57.05373 1.9686565 0.66666698
-21.575647 -57.0639 2.151485 0
-21.64329 -57.047569 0.50098729 4
-21.611101 -57.051041 0.66152972 2.5
-21.641594 -57.058327 0.79752696 5
-21.648733 -57.055611 0.88376522 4
-21.674288 -57.109818 1.2344885 1
-21.672207 -57.084255 1.3164618 1
-21.676893 -57.112446 1.4930296 0
-21.673534 -57.090092 1.5752563 1
-21.62504 -57.041245 1.7271798 3
-21.633108 -57.02853 2.0796518 4
-21.599745 -57.058678 0.53705311 2
-21.589926 -57.046494 0.87075776 4
-21.591887 -57.076462 1.2103726 2.666667
-21.616629 -57.07914 1.4715867 1
-21.613676 -57.074135 1.5986823 1.5
-21.5695 -57.110901 1.4938909 1
-21.572245 -57.060966 0.57231027 2
-21.584076 -57.113758 1.2909125 1
-21.589119 -57.109974 1.4620209 1
-21.578197 -57.066689 1.580515 2
-21.58816 -57.106499 1.391565 0
-21.578829 -57.063225 1.5521122 2
-21.58465 -57.084808 1.6412953 1
-21.585793 -57.070961 1.7242823 1
-21.628925 -57.082275 0.53752846 3
-21.593969 -57.048592 0.78129548 9
-21.585297 -57.049843 0.94425792 9.333333
-21.596973 -57.047276 1.192924 10
-21.637638 -57.120697 1.3726653 0
-21.63261 -57.083118 1.5345507 1
-21.56918 -57.037441 1.9429939 4
-21.594942 -57.059959 0.54107076 3
-21.578119 -57.041904 0.78795445 9
-21.567289 -57.045532 0.90946829 8
-21.622059 -57.104195 1.2078625 1
-21.622288 -57.113876 1.2919815 1
-21.621861 -57.092125 1.582263 1
-21.625603 -57.094585 1.7099161 1
-21.596954 -57.03199 0.5432052 7
-21.621725 -57.046364 0.67033809 3
-21.658022 -57.081009 1.294894 2
-21.660061 -57.087017 1.5454015 1.5
-21.622753 -57.041882 2.0014524 5
-21.679161 -57.089378 0.61401647 18
-21.576733 -57.065208 0.89195204 1
-21.625969 -57.050034 1.064792 2.5
-21.686134 -57.047791 1.2383947 3
-21.70377 -57.110676 1.3277442 1
-21.596188 -57.052036 1.6458547 1
-21.695242 -57.065197 1.5743432 2
-21.59062 -57.057129 1.8170727 0.33333299
-21.626343 -57.039818 1.9901443 3
-21.696077 -57.043411 0.55751836 2.5
-21.602146 -57.040615 0.66725397 1
-21.585487 -57.065903 0.83176792 0
-21.698076 -57.036625 0.80727655 3.5
-21.63036 -57.02256 0.92150271 3
-21.690741 -57.030853 1.0135975 7
-21.707193 -57.048008 1.2243954 3
-21.704998 -57.026241 1.5151668 3
-21.631227 -57.031651 1.5926554 3
-21.599474 -57.055153 1.7659112 0
-21.610195 -57.050461 0.72097653 2.5
-21.591112 -57.047199 1.0519711 6.5
-21.614014 -57.059982 1.6032431 2
-21.587965 -57.033855 1.7232525 6
-21.569305 -57.038876 1.8504074 6
-21.575804 -57.047573 0.63275176 18
-21.567081 -57.034435 0.84189498 7
-21.586599 -57.043827 0.97311544 3
-21.591787 -57.056446 1.3123709 3
-21.574385 -57.034664 1.6465988 5
-21.593187 -57.04821 1.6530049 3.5
-21.57597 -57.036869 1.8205299 4
-21.565813 -57.056095 0.68652833 2
-21.581299 -57.082428 1.2358538 2
-21.570032 -57.064716 1.6165628 3
-21.578644 -57.063663 0.54529768 2
-21.586145 -57.075417 1.2295642 2
-21.571026 -57.038361 1.3060633 4
-21.591841 -57.01239 0.5040794 12
-21.577782 -57.066002 1.1768395 3
-21.6021 -57.09811 1.5323335 1
-21.595783 -57.082031 1.6146634 2
-21.577339 -57.010567 0.52940089 12
-21.585012 -57.090576 1.5963486 1.5
-21.592583 -57.090591 0.54416174 16
-21.579031 -57.061119 1.2185789 3
-21.581377 -57.07114 1.6053929 2
-21.608433 -57.031273 0.53843403 5
-21.578413 -57.051689 0.99301845 9
-21.579618 -57.045029 1.1617507 9
-21.618404 -57.091614 1.2609882 1
-21.607048 -57.067562 1.5980034 2.333333
-21.577234 -57.045444 0.739272 6
-21.574451 -57.046085 0.99012589 5
-21.598566 -57.11245 1.2547463 1
-21.582737 -57.034084 1.3267477 3
-21.585039 -57.064903 1.5877714 2.5
-21.586929 -57.065987 0.52454334 2
-21.570799 -57.05378 1.0234948 6
-21.590578 -57.06427 1.1960752 3
-21.581873 -57.062023 1.5739264 3
-21.586479 -57.063564 0.62302959 3.5
-21.59634 -57.088776 1.3373061 1
-21.576702 -57.055321 1.2472075 3
-21.594358 -57.079594 1.5053185 2
-21.602503 -57.101128 1.5952289 1
-21.58876 -57.063953 0.55154532 2
-21.59026 -57.049984 1.3011165 3
-21.585268 -57.063168 1.5530279 2
-21.597864 -57.059254 0.58210051 2
-21.584236 -57.051956 0.663158 2
-21.613937 -57.098408 1.3377001 1
-21.570017 -57.038078 1.2413814 11
-21.604778 -57.068291 1.5003951 2
-21.592619 -57.053345 1.5810124 2
-21.600437 -57.069393 0.58989954 2
-21.588558 -57.049831 0.67182469 3
-21.58119 -57.046261 1.0861732 6
-21.576307 -57.050243 1.2521504 8
-21.609606 -57.087074 1.3456957 2
-21.619373 -57.080303 1.5999148 1
-21.596844 -57.002254 1.5000341 4
-21.595562 -57.056091 0.56562001 2
-21.603006 -57.082439 0.98644453 2
-21.569717 -57.050674 0.89479363 6
-21.578402 -57.04858 1.0633246 5
-21.618914 -57.081066 1.3258801 0
-21.598024 -57.060497 1.5724032 2
-21.621019 -57.050652 0.64999336 3
-21.578091 -57.037304 0.84899682 9.5
-21.580629 -57.037025 1.0995373 10.5
-21.593506 -57.048061 1.2287983 4
-21.620571 -57.099869 1.3240861 1
-21.62269 -57.095592 1.5792959 1
-21.602674 -57.05431 0.54805243 2
-21.597584 -57.060673 1.2171077 3
-21.618267 -57.077961 1.3075719 1
-21.616451 -57.088776 1.5632343 1
-21.568911 -57.037903 2.0658793 4
-21.600191 -57.068867 0.54776394 2
-21.599102 -57.060658 0.63167906 2
-21.609566 -57.090477 0.96869719 2
-21.573368 -57.045135 1.0423932 8
-21.612814 -57.097347 1.2216493 1
-21.609495 -57.096859 1.3052806 1
-21.606081 -57.067337 1.5541213 2
-21.615635 -57.051918 0.5546118 3.5
-21.577026 -57.043907 0.75486511 8
-21.567404 -57.047829 0.87703961 6
-21.608194 -57.066196 1.2590684 3
-21.60808 -57.072643 1.552937 2
-21.594316 -57.05468 1.7172524 3.5
-21.592606 -57.096741 1.3452133 1
-21.586853 -57.062977 1.5071545 2
-21.592705 -57.100929 1.5971875 1
-21.601627 -57.062473 0.64515126 18.5
-21.576946 -57.047852 1.260699 5
-21.609291 -57.097069 1.3535818 1
-21.599716 -57.074566 1.5164716 2
-21.581884 -57.055214 1.6371468 4
-21.62723 -57.042175 0.54759258 3
-21.628126 -57.089333 1.2984296 1
-21.575296 -57.028847 1.616918 9
-21.61318 -57.063148 1.5441551 2
-21.567091 -57.040768 1.7873966 5
-21.618647 -57.080898 0.581532 3
-21.610409 -57.041481 0.66487128 3
-21.587002 -57.046867 0.86798805 6.5
-21.582821 -57.031837 1.0741225 9
-21.622061 -57.083347 1.2532979 1
-21.590822 -57.018356 1.3241985 9
-21.621674 -57.085888 1.5917668 1
-21.613131 -57.076519 1.5032409 3
-21.629457 -57.101486 1.681742 0
-21.605867 -57.14135 0.57297611 35
-21.597157 -57.044231 0.65912658 3
-21.575914 -57.050579 0.82110101 6
-21.569399 -57.043201 1.0685188 9
-21.606863 -57.069771 1.286931 2.5
-21.609772 -57.102104 1.5871885 1
-21.603659 -57.080978 1.4974024 2
-21.612442 -57.08017 1.6696007 1
-21.596399 -57.095009 1.2929189 1
-21.591284 -57.083466 1.5853021 2
-21.582067 -57.053112 0.57198548 2
-21.597298 -57.089645 1.3286071 1
-21.582453 -57.058628 1.5741925 2
-21.610125 -57.064781 0.62882346 3.5
-21.571577 -57.046059 0.82965988 8
-21.567947 -57.035572 1.0771333 13
-21.599834 -57.065147 1.2518072 3
-21.580296 -57.015476 1.3266734 10
-21.603443 -57.07832 1.5054848 3
-21.612036 -57.092033 1.5938516 1
-21.602285 -57.059387 1.672137 2
-21.600943 -57.074043 0.55215734 2
-21.599907 -57.06971 1.5532689 2
-21.610233 -57.064583 0.58453059 3
-21.610348 -57.082779 1.2521104 2
-21.59959 -57.060253 1.3316416 3
-21.601299 -57.067543 1.5422566 2
-21.57518 -57.047882 1.0700741 7
-21.606285 -57.082035 1.2451489 2
-21.598083 -57.073139 1.5789185 2
-21.584381 -57.037922 2.1746058 3
-21.57814 -57.038376 0.60838938 2.333333
-21.619104 -57.078407 0.9531154 2
-21.629063 -57.101898 1.2924075 0
-21.612808 -57.063 1.5376041 2
-21.57646 -57.038078 1.654017 5
-21.593124 -57.038307 1.7856069 4
-21.582609 -57.044716 0.56489867 3.333333
-21.582476 -57.05127 0.81681812 4
-21.601402 -57.068146 1.2399435 3
-21.615255 -57.075375 1.4965516 1
-21.618143 -57.103996 1.5868405 1
-21.617651 -57.085434 1.669772 1
-21.589214 -57.032978 2.0878673 3
-21.575272 -57.004936 0.50584275 4.5
-21.579817 -57.056801 0.79919046 4
-21.567883 -57.04549 1.0465789 9
-21.584963 -57.051758 1.2183518 3
-21.565966 -57.04026 2.1585493 4
-21.572924 -57.055656 0.6218462 3
-21.565174 -57.051876 0.83071804 3
-21.594276 -57.104122 1.2620915 0
-21.576529 -57.063007 1.4229147 2.5
-21.593258 -57.103683 1.6465154 0.5
-21.569551 -57.043167 0.55440986 5
-21.577951 -57.060894 1.229507 3
-21.595041 -57.080711 1.4902595 1
-21.594923 -57.138371 1.6732728 0
-21.587166 -57.082382 1.5742534 2
-21.576511 -57.059536 0.59357756 2.5
-21.577875 -57.076225 1.2276859 3
-21.568872 -57.024982 1.3043396 4
-21.588917 -57.119175 1.4917864 1
-21.591404 -57.091358 1.6174741 1
-21.579819 -57.040142 0.6237334 7.5
-21.617102 -57.087807 1.0974958 2
-21.581184 -57.04343 0.91848725 8
-21.580118 -57.036194 1.1687415 10
-21.619696 -57.088276 1.267266 1
-21.597479 -57.044827 1.5105584 2
-21.620852 -57.101959 1.610718 1
-21.587074 -57.035164 1.6774728 4
-21.574236 -57.034782 2.0227752 5
-21.591061 -57.049942 0.6717959 2.666667
-21.617332 -57.03862 1.0934985 12
-21.658464 -57.091049 1.2718722 1
-21.657845 -57.086361 1.5661346 1.5
-21.66144 -57.084961 1.6936467 1
-21.625219 -57.046776 2.1128674 3.666667
-21.599419 -57.04961 0.52896327 2
-21.605539 -57.042904 0.78167045 8
-21.602798 -57.048763 0.90543222 4.5
-21.603075 -57.039696 1.1943916 16
-21.639866 -57.066837 1.2859341 2
-21.648849 -57.106422 1.5860292 0.5
-21.590899 -57.092125 1.7018168 0
-21.596876 -57.042168 2.081073 4
-21.642128 -57.057983 0.56670201 3
-21.617765 -57.041 1.0618446 9
-21.647539 -57.07954 1.236692 2
-21.656096 -57.094646 1.32359 1
-21.570284 -57.050766 1.5546759 2
-21.653446 -57.078575 1.5319582 1.5
-21.567671 -57.063179 2.0749316 1.666667
-21.627262 -57.046463 0.55849612 3.333333
-21.628716 -57.045635 0.81134212 6
-21.581923 -57.040951 0.88377523 4
-21.631098 -57.045467 1.0623734 7
-21.598389 -57.040504 1.1382985 8
-21.670835 -57.107193 1.6714251 0
-21.666962 -57.084076 1.5802758 1
-21.592369 -57.028488 1.8129399 2
-21.610161 -57.029812 1.9912827 17
-21.647024 -57.058392 0.54970789 2
-21.584965 -57.042221 0.66132474 1.5
-21.571712 -57.053516 0.86837506 3.5
-21.606457 -57.04932 1.0860631 4
-21.620407 -57.072487 1.529039 1.333333
-21.65848 -57.07206 1.6514231 1
-21.588446 -57.027874 1.9765764 4
-21.567156 -57.032959 2.0633302 1
-21.599438 -57.044174 0.51595926 30
-21.599707 -57.05019 0.89365381 3
-21.574272 -57.038212 1.0549214 6.5
-21.641212 -57.099026 1.2418729 1
-21.638678 -57.08918 1.5375769 1
-21.625095 -57.074768 0.57037979 4
-21.581709 -57.053581 1.0618373 8
-21.623209 -57.11655 1.2830578 0.5
-21.62105 -57.111607 1.5358953 1
-21.590403 -57.051521 1.6495253 4
-21.566175 -57.064125 0.56534207 2
-21.577747 -57.063629 1.1920209 11
