# .PCD v0.7 - Point Cloud Data file format
VERSION 0.7
FIELDS x y z intensity
SIZE 4 4 4 4
TYPE F F F F
COUNT 1 1 1 1
WIDTH 1326
HEIGHT 1
VIEWPOINT 0 0 0 1 0 0 0
POINTS 1326
DATA ascii
-22.09935 -51.012672 0.35535824 2
-22.115818 -50.943542 0.37797272 1
-22.059715 -50.772694 0.39127171 2
-21.809765 -50.960667 0.26712871 10
-21.88637 -50.959976 0.37141961 3
-21.951883 -50.786121 0.39194942 5
-22.100843 -50.943386 0.36776716 1.666667
-22.046675 -50.720577 0.36799526 3
-21.822348 -50.975956 0.30246735 5
-21.890144 -51.030224 0.37822306 3
-22.02327 -50.799587 0.40802705 5
-22.153578 -51.030472 0.36712325 2
-22.154732 -50.966061 0.38430375 2
-22.1614 -50.765152 0.38770837 2
-21.907387 -50.918758 0.41523439 3.5
-21.937654 -50.794392 0.41769683 7
-21.797716 -50.985844 0.28520977 7.5
-22.146461 -51.021084 0.33334142 2
-22.159472 -50.890999 0.35392457 2
-22.108936 -50.766266 0.37757194 3
-21.893568 -51.05867 0.39307052 3
-21.873081 -50.880951 0.40292442 3.5
-21.975012 -50.797897 0.39915013 6
-21.770231 -50.958729 0.27232397 4
-22.169022 -51.063885 0.34126997 2
-22.189388 -50.835209 0.33064389 1
-22.161352 -50.789337 0.38391817 3
-21.8589 -51.042603 0.36377823 3
-21.901169 -51.035049 0.41313171 3
-21.884783 -50.924271 0.4195568 3
-22.012157 -50.790993 0.41259074 7.5
-21.79241 -50.966888 0.25646842 5
-22.222313 -51.045204 0.29545963 2
-22.222055 -50.834171 0.32454228 3.333333
-22.222332 -50.789696 0.28503138 2
-21.854366 -51.019192 0.33124244 3
-21.908869 -50.877102 0.41214585 4.5
-21.927876 -51.061996 0.40378702 4
-22.058878 -50.787113 0.40306902 8.5
-22.176079 -50.796291 0.38648093 6
-22.184296 -50.873318 0.24816781 2
-21.834419 -51.031429 0.34750587 5
-21.814699 -50.905357 0.3424235 6
-21.964117 -50.796867 0.39579135 9
-22.06749 -50.770756 0.38616204 9
-22.141655 -50.818356 0.34812737 7.666667
-22.244755 -50.841553 0.22162932 3.4000001
-21.761219 -50.945778 0.21826005 5
-21.876827 -51.009705 0.35319394 4
-21.899769 -50.825993 0.39730197 6
-22.025137 -50.785374 0.39351434 8
-22.119282 -50.751698 0.38008416 8
-22.198723 -50.816883 0.33030975 9.5
-22.303606 -50.850845 0.17592633 2.75
-21.918224 -51.033901 0.33486009 4
-22.146309 -50.782314 0.3641063 9.25
-22.262375 -50.835327 0.28846276 8.333333
-21.934084 -50.872807 0.38247204 6
-22.258245 -50.664894 0.174649 3
-22.324945 -50.887775 0.15952772 2
-21.909328 -51.027668 0.34365112 5
-22.137691 -50.772297 0.39650589 9.5
-22.268629 -50.836025 0.31166017 9
-21.953703 -51.036499 0.39859945 4
-21.97611 -50.86721 0.41157806 6.5
-22.283442 -50.886002 0.11868346 2
-22.254 -50.672985 0.1519624 3
-22.314756 -50.884754 0.17275935 3
-21.820293 -50.963531 0.2526744 12
-21.85347 -50.995941 0.31160343 3
-22.162415 -50.779476 0.38564736 9.333333
-22.25148 -50.828728 0.30106699 9.25
-21.926292 -50.999847 0.39623046 4
-22.003519 -50.784683 0.40299368 9
-22.300617 -50.864346 0.099516809 2
-22.30788 -50.844055 0.17574251 3.5
-21.84306 -50.982002 0.25184047 9
-21.899733 -51.030056 0.32261127 5
-22.179319 -50.797321 0.36162794 10
-22.269968 -50.850697 0.27867413 8.333333
-21.950794 -51.038967 0.3800869 5
-21.960024 -50.889233 0.39165944 7.5
-22.280581 -50.702156 0.11386931 3
-22.321983 -50.847332 0.18298042 5
-21.833099 -50.948536 0.22887027 12
-21.878695 -50.989826 0.29536116 4
-22.214926 -50.785294 0.3515501 9.6000004
-21.949642 -50.992306 0.38005579 4.5
-21.983892 -50.799644 0.3965342 6.5
-21.698227 -50.757221 -0.0056555299 12
-22.332651 -50.871811 0.10301101 3.5
-21.843834 -50.943192 0.23336458 6
-22.275162 -50.810444 0.31475854 9.5714283
-21.955116 -51.030743 0.35426033 5
-21.997059 -50.853867 0.3972218 8
-22.103823 -50.776611 0.38884753 10
-22.295912 -50.682877 -0.04180884 2
-21.871119 -50.981075 0.26132631 4
-22.287968 -50.826401 0.29606235 9.4285717
-21.973328 -51.028625 0.36888099 4
-22.017097 -50.820953 0.39054942 9
-22.145771 -50.783405 0.37881327 10
-22.307428 -50.850208 0.064831793 3
-22.334751 -50.872242 0.16778362 7.5
-21.843714 -50.968899 0.22259963 9
-22.246622 -50.806843 0.32265067 10
-22.310192 -50.862007 0.23096669 7.5
-21.933346 -51.033318 0.32933235 5
-21.990271 -50.864273 0.37978572 11.5
-22.10252 -50.777866 0.37192118 10
-22.27879 -50.848789 0.088194728 4
-22.298365 -50.864578 0.20440483 8
-21.791584 -50.936325 0.22682935 6
-22.229313 -50.804302 0.31074691 9
-21.910067 -51.030079 0.35193467 6
-21.950964 -50.863567 0.39580137 6.5
-22.056812 -50.7799 0.38612461 10
-22.298723 -50.834774 0.11030418 4.333333
-22.248682 -50.668118 0.14277524 5
-21.817043 -50.947983 0.20449042 7.5
-22.221474 -50.799137 0.30808204 10.333333
-21.923531 -51.01992 0.33900517 4
-21.936512 -50.860004 0.37334526 7.5
-22.054867 -50.792648 0.37118661 9
-22.312563 -50.819828 0.09096694 3
-22.277584 -50.669243 0.12880892 3.666667
-21.849928 -50.966145 0.18648362 10
-22.228374 -50.795776 0.32382143 10
-21.942881 -51.01297 0.35612106 5
-21.998764 -50.802025 0.38206148 9.5
-22.27039 -50.63266 -0.02435207 2
-22.334084 -50.815647 0.18763614 7
-21.855953 -50.939236 0.20793998 10
-22.242563 -50.777985 0.35423321 10.25
-21.951445 -51.007187 0.35756183 4
-22.028904 -50.801826 0.39976299 10
-21.689871 -50.720055 -0.00217044 11
-22.340244 -50.816113 0.14863688 5
-21.870993 -50.949314 0.22007906 7
-22.276312 -50.797112 0.32626438 9.4285717
-21.972849 -51.010868 0.37065828 5.5
-21.987917 -50.822361 0.4020856 7.5
-22.094877 -50.770802 0.3978619 9
-22.333342 -50.849941 0.047612429 4
-21.851917 -50.917858 0.21167368 4
-22.297344 -50.808529 0.32224143 10.4
-22.366009 -50.874985 0.23289889 7
-21.988979 -51.005489 0.36183602 4.333333
-22.063889 -50.799595 0.39343262 10
-22.152124 -50.779934 0.38611907 10
-22.317553 -50.879787 0.05979031 4
-22.278913 -50.645618 0.16945589 6
-22.355391 -50.83535 0.18259084 7
-21.850985 -50.928185 0.21873683 9
-22.24032 -50.766388 0.36446804 11
-22.316721 -50.801422 0.25871009 7.666667
-21.963984 -50.986332 0.35239929 6.666667
-22.050802 -50.779243 0.38767666 10
-22.142143 -50.767174 0.38267171 10
-22.25774 -50.688946 0.079595797 3
-21.846315 -50.970215 0.29869348 6
-22.239738 -50.776325 0.34488493 9
-22.221725 -50.62035 0.21514404 8
-22.28446 -50.853249 0.27197528 9
-21.93655 -51.003925 0.39765078 7
-21.936531 -50.824238 0.42269182 6.5
-22.123131 -50.768543 0.41021949 9.666667
-22.243238 -50.695583 -0.026364559 2
-21.80245 -50.943165 0.22564113 8.5
-22.216629 -50.765762 0.31642473 9
-22.267302 -50.850334 0.24883103 9.666667
-21.913654 -50.999508 0.37597024 7
-21.920963 -50.824791 0.40276426 6
-22.103874 -50.762886 0.38565403 9.333333
-22.278402 -50.768517 0.05887508 3
-22.242493 -50.800644 0.30747682 11.333333
-22.287285 -50.836563 0.22969675 8
-21.902596 -50.994625 0.35322827 4.333333
-21.923862 -50.81115 0.4005509 6
-22.117146 -50.758583 0.38612932 10
-21.692141 -50.779896 -0.01192307 13
-22.28763 -50.855976 0.086878657 4
-21.814362 -50.945435 0.23132271 5
-22.244162 -50.788273 0.2987045 8.75
-22.273462 -50.846901 0.27194393 10
-21.925568 -51.012486 0.36298537 5
-21.956879 -50.839958 0.3931852 6.5
-22.128544 -50.763115 0.38150012 9.5
-22.293873 -50.815025 0.072270632 3
-22.300411 -50.844048 0.16556078 5
-21.813961 -50.94828 0.21601808 4
-21.899124 -51.017002 0.30145448 6
-22.197105 -50.785374 0.31601936 10.4
-22.271976 -50.853336 0.233105 8.5
-21.928135 -50.969254 0.35492235 4
-22.005638 -50.763813 0.35660177 9
-22.308281 -50.851994 0.16513038 4.5
-22.273661 -50.67762 0.12742889 3.5
-21.901661 -51.004223 0.30998057 5
-22.194777 -50.783131 0.33179617 9.8000002
-21.949402 -50.972343 0.37414849 5
-21.950729 -50.827129 0.38116127 6
-21.705908 -50.732254 -0.021826981 13
-22.355675 -50.828106 0.15047932 4.666667
-21.880745 -50.959274 0.23989141 4
-21.962555 -51.02557 0.32458824 5
-22.26042 -50.794846 0.32728624 9.333333
-22.346317 -50.87841 0.25439036 7
-21.994619 -50.973404 0.37933761 3.5
-22.047405 -50.814842 0.38434958 11
-21.729769 -50.737461 -0.035811421 12
-22.370043 -50.858292 0.14489746 4.5
-22.39727 -50.861279 0.1575619 3.5
-21.971811 -51.012539 0.30346745 8
-22.297054 -50.808552 0.31042284 9.4285717
-22.016768 -50.98946 0.37059623 4.5
-22.085093 -50.788395 0.37545645 9
-22.347109 -50.878807 0.11881554 2
-22.357101 -50.860954 0.19566965 4.333333
-21.886311 -50.960876 0.25146556 11
-21.949919 -51.022068 0.3282578 5
-22.243305 -50.789677 0.34134722 9.8000002
-22.325676 -50.822086 0.24616593 6
-21.996347 -51.025196 0.38278806 5
-22.001154 -50.85445 0.38838631 7
-22.356564 -50.874256 0.17224187 3.25
-21.859184 -50.945354 0.18992013 11
-21.923628 -51.000999 0.28605455 4
-22.192019 -50.775177 0.3609643 10
-22.308329 -50.838539 0.27322578 9
-21.986498 -51.002518 0.36572629 4
-21.995995 -50.852825 0.37759131 7
-22.313538 -50.854645 0.16508442 3.666667
-21.845755 -50.964893 0.24594802 4
-21.914583 -51.02256 0.32321161 3
-22.183718 -50.776196 0.34165126 10
-22.271885 -50.806534 0.25253522 7
-21.951994 -51.000027 0.36903274 4
-21.95409 -50.825626 0.37474149 6
-22.260225 -50.794502 0.17438674 3.666667
-22.194208 -50.611591 0.17866766 4
-22.28056 -50.833187 0.170151 3
-21.797182 -50.95105 0.23049968 7.5
-21.88089 -51.021278 0.35515714 5
-22.14797 -50.781807 0.34982568 10.25
-21.899555 -50.937035 0.39904052 3.5
-21.935755 -50.800072 0.40448928 11
-22.291845 -50.837547 0.13776636 4.5
-21.851645 -50.973396 0.32438123 3
-22.233904 -50.795483 0.3430894 9.3999996
-22.219007 -50.63456 0.21670759 7
-21.927311 -50.946815 0.41984063 5.666667
-21.993916 -50.77562 0.42589295 9.5
-22.13604 -50.74725 0.41350257 10
-21.666557 -50.70882 -0.0088274498 10
-22.315481 -50.782967 0.099526577 4.5
-21.876545 -50.96603 0.27131915 4
-22.265272 -50.791367 0.3207553 9.6000004
-22.266033 -50.63269 0.1692903 7
-21.968485 -50.978687 0.3817609 3.666667
-22.015265 -50.780991 0.39324135 10
-22.114157 -50.773773 0.3883729 10
-22.252893 -50.677223 0.071317203 3.333333
-21.824448 -50.975304 0.22037923 9
-22.20479 -50.780701 0.31528205 10
-22.213648 -50.635113 0.15487552 6
-21.907679 -50.98505 0.36518848 4
-21.970314 -50.772518 0.37908155 10
-22.076349 -50.767067 0.37722903 11
-22.197823 -50.591961 -0.063392758 3
-22.239586 -50.749691 0.16852152 6.5
-22.196535 -50.552292 -0.033854369 2
-21.822409 -50.987961 0.28838122 4
-22.202742 -50.803928 0.29847538 10.5
-21.882969 -50.991196 0.36543608 4
-21.937487 -50.807156 0.38689858 8
-22.112722 -50.745552 0.37110287 10
-21.873657 -51.01305 0.08684653 13
-22.285105 -50.798061 0.13567948 5.5
-21.827105 -50.969189 0.24716789 4
-21.899784 -51.029091 0.32467544 5
-22.202864 -50.791512 0.29662836 9.8571424
-21.913834 -50.937618 0.36182684 4
-21.98287 -50.772907 0.36632127 10
-22.305807 -50.858337 0.15973848 7.666667
-22.236507 -50.651291 0.15113229 6
-21.893864 -51.015652 0.29046881 5
-21.954786 -51.049347 0.35519093 6
-22.04524 -50.780617 0.35829455 10
-22.217964 -50.80373 0.31086367 10.5
-21.944435 -50.939453 0.3612597 7
-21.943859 -50.811352 0.37007338 10
-22.309658 -50.772503 0.14203864 6
-22.238743 -50.628445 0.15871429 7
-21.876654 -50.983894 0.25107974 6
-21.949127 -51.044094 0.328574 5
-21.968561 -50.998882 0.35941643 4
-22.067312 -50.777691 0.35942984 9.5
-22.243727 -50.804554 0.31366849 11
-21.951866 -50.897804 0.36698294 3
-22.328049 -50.773254 0.13575745 5.25
-21.871981 -50.965748 0.21471322 6
-21.97871 -51.052265 0.33034366 5
-21.984623 -50.984814 0.35183096 3
-22.059521 -50.782459 0.35073239 9.5
-22.265017 -50.807991 0.29691482 10.4
-21.967657 -50.870472 0.35771561 4
-21.67701 -50.69915 -0.038127478 10
-22.361563 -50.851936 0.18269211 5.5
-21.938831 -51.006081 0.27401966 5
-21.998575 -50.963112 0.35884994 3.666667
-22.070461 -50.798962 0.3654381 9
-22.273239 -50.795403 0.32157558 9.25
-22.246481 -50.799931 0.24870974 5.5
-21.894617 -50.977772 0.37890244 4
-21.948603 -50.783237 0.4075135 5.5
-22.175444 -50.791012 0.37264752 9.75
-22.261648 -50.866337 0.14018744 6
-22.221952 -50.807472 0.18074995 8.333333
-21.856266 -51.017376 0.25660783 4
-21.78834 -50.963886 0.18107486 5
-21.898476 -51.010315 0.30493015 4
-21.880688 -50.896557 0.30867869 3
-21.977203 -50.766743 0.3114022 8
-22.150539 -50.766247 0.27481794 9.25
-22.32568 -50.821827 0.29941237 9
-21.899704 -50.915775 0.3858633 5.333333
-21.973127 -51.034412 0.45416266 5
-21.968647 -50.947201 0.46686542 3
-22.04327 -50.772343 0.46969771 9.5
-22.24383 -50.783569 0.42775154 10.5
-21.764814 -50.937378 0.095805407 13
-22.245012 -50.857063 0.1340127 9
-22.200253 -50.77998 0.18469322 8.5
-21.839144 -50.986729 0.24978745 8
-21.751438 -50.924706 0.16480035 5
-21.88187 -51.001972 0.30321974 4
-21.874098 -50.917839 0.31550336 3
-21.918493 -50.748833 0.30882663 8.5
-22.140333 -50.761421 0.27087229 10
-21.659632 -50.716347 0.03072321 12
-21.840599 -50.949162 0.29980803 4
-22.288218 -50.830742 0.30163682 10
-22.254564 -50.773727 0.34541881 9.5
-21.923969 -51.018101 0.38619351 5
-21.93602 -50.878529 0.42917132 3
-21.959414 -51.001945 0.43012369 4
-22.072821 -50.758461 0.42915678 9.5
-22.21538 -50.766838 0.40478027 9.5
-21.877277 -50.984203 0.076998413 14
-21.821543 -50.935421 0.13898879 6
-22.287819 -50.789814 0.19053316 8.75
-21.90818 -51.021698 0.25152147 4
-21.962439 -50.867744 0.33119845 4.666667
-21.962452 -51.045948 0.31230247 5
-22.137344 -50.764885 0.32120824 9
-22.238914 -50.793678 0.28799367 10
-21.69787 -50.746552 -0.0062605101 12
-21.88485 -50.984882 0.26540732 5
-22.317898 -50.844147 0.26426411 10
-22.284489 -50.793514 0.31103504 8.5
-21.959547 -51.037998 0.34317958 5
-21.971653 -50.920864 0.39073449 3
-21.995649 -51.021591 0.38692319 6
-22.118311 -50.781021 0.38599378 9.5
-22.246204 -50.786129 0.37157583 8
-21.867575 -50.976833 0.2637735 4
-21.940107 -51.027439 0.33957684 5
-22.138388 -50.760983 0.36817265 9
-22.246214 -50.784744 0.31449378 9.25
-21.937216 -50.867649 0.37069583 4
-21.969458 -50.998322 0.37685335 4
-22.023399 -50.783821 0.37702101 10
-21.933102 -50.999317 0.25854075 9
-21.999615 -51.024807 0.34362459 3.5
-21.991865 -50.897755 0.36366516 3
-22.1248 -50.782299 0.35775793 9.5
-22.285728 -50.794731 0.31626749 8
-21.858585 -50.958523 0.21292943 5
-21.954035 -51.037598 0.30611855 8
-21.970558 -50.99881 0.33773643 3
-22.087149 -50.783516 0.34189469 9
-22.25264 -50.796379 0.30433857 8
-21.963211 -50.914333 0.35135227 2
-21.871565 -50.960613 0.25693321 6.5
-21.973131 -51.040138 0.37224889 5
-21.975254 -50.917206 0.39825356 4
-22.067335 -50.786655 0.39874458 9
-22.255676 -50.792553 0.36877453 6.666667
-21.973961 -51.022671 0.36773795 5
-21.916069 -51.000679 0.30494052 5
-22.044611 -50.766586 0.37009329 9
-22.227415 -50.795513 0.34543037 6.75
-21.954351 -50.918957 0.3730194 2
-21.847462 -50.95261 0.23849607 5
-21.931459 -51.025318 0.32768857 4
-22.229832 -50.789436 0.34466648 6
-21.979195 -51.032013 0.38321358 3
-21.957865 -50.902451 0.38391459 3
-22.026972 -50.787415 0.38482714 9
-21.823605 -50.955162 0.21303052 6
-21.911163 -51.03487 0.30484438 5
-22.193781 -50.792492 0.3163861 6
-21.941103 -50.959476 0.35440433 4.5
-21.994127 -50.787239 0.35645396 9
-21.827341 -50.981983 0.27552068 5
-21.884262 -51.012264 0.34159696 5
-22.024601 -50.750355 0.36911345 8
-22.182302 -50.781811 0.33796525 5
-21.902941 -50.914051 0.38131261 3
-21.936081 -50.793095 0.38600492 9
-21.810125 -50.933231 0.22468257 7
-21.916861 -51.018734 0.34382123 4
-22.021484 -50.777817 0.38062257 8
-22.195341 -50.78017 0.34780735 6
-21.927536 -50.918819 0.3789221 3
-21.849596 -50.946217 0.21191758 11
-21.949274 -51.021786 0.32803398 5
-21.967497 -50.882626 0.37842786 4
-22.074793 -50.771797 0.37433594 9
-22.226906 -50.775909 0.35368532 5.333333
-21.865761 -50.957253 0.27574581 6
-21.953892 -51.032589 0.36683309 5
-21.953285 -50.908646 0.39542764 2.5
-22.022194 -50.778549 0.39457691 9
-22.21262 -50.777832 0.37016058 5.666667
-21.833763 -50.951836 0.15967578 6
-21.925097 -51.028824 0.25290543 6
-21.946857 -50.950104 0.29904681 3
-22.003111 -50.797867 0.30658454 8
-22.190918 -50.786064 0.27692008 5.5
-21.858353 -50.959957 0.23013276 6
-21.941809 -51.024761 0.31691796 6
-21.957689 -50.92535 0.35709 3.5
-22.037107 -50.77021 0.35361832 8.5
-22.211142 -50.782398 0.34238952 6
-21.903973 -50.986576 0.35321808 6
-21.963621 -51.023304 0.42299455 5
-21.977768 -50.868149 0.456559 4.666667
-22.093515 -50.777294 0.45403111 8
-22.232992 -50.775547 0.42839909 7
-21.885239 -50.985428 0.2059468 13
-21.92737 -51.011776 0.26614201 4
-22.227551 -50.782516 0.28350484 5.5999999
-21.971684 -50.971355 0.32839459 3.5
-22.030605 -50.786499 0.3287105 9
-21.809155 -50.916756 0.22238386 6
-21.902481 -51.004787 0.32019234 3
-21.938969 -50.93515 0.37458313 3.5
-22.045538 -50.763588 0.37755823 9
-22.219444 -50.777435 0.3496601 6
-21.867201 -50.950886 0.24426627 5
-21.967897 -50.967552 0.3661676 3
-22.066662 -50.786854 0.38598734 9
-22.247139 -50.793388 0.36062509 5.333333
-21.807781 -50.936844 0.20364606 8
-21.918707 -51.013325 0.36594719 4.5
-21.996517 -50.787575 0.4073807 7
-22.178923 -50.780006 0.37966526 6
-21.937757 -50.920036 0.41011661 3
-21.846933 -50.968483 0.23811722 10
-21.938587 -51.03315 0.36685336 5
-22.025803 -50.779892 0.38625169 8
-22.195261 -50.773178 0.35366631 5
-21.945389 -50.946682 0.38824558 4
-21.934912 -50.792603 0.39330947 8
-21.877325 -50.953194 0.21615869 9
-21.979588 -51.03038 0.33301771 5
-22.058752 -50.776371 0.35224259 8
-22.235678 -50.788601 0.32893348 5.25
-21.982231 -50.937435 0.35243297 4
-21.971197 -50.796627 0.36100674 6
-21.852112 -50.969181 0.21041298 9.5
-21.928928 -51.02692 0.33436424 4
-22.032646 -50.772705 0.36978972 8
-22.198479 -50.775333 0.34299076 5
-21.948404 -50.966606 0.36852396 4
-21.948233 -50.813492 0.3809374 9
-21.802298 -50.949539 0.26053131 6
-21.88242 -51.020172 0.34922886 4
-22.02379 -50.773933 0.39984447 8
-22.176744 -50.779095 0.36796039 4.5
-21.91514 -50.932003 0.40299153 4
-21.937889 -50.796726 0.40787864 9
-21.784824 -50.964203 0.25103182 9.5
-21.86314 -51.020596 0.37483788 4
-21.995749 -50.779087 0.41636837 8
-22.147316 -50.790237 0.38378304 4.25
-21.876057 -50.91098 0.41420317 3
-21.905119 -50.790615 0.42208833 9
-21.81189 -50.949783 0.26175743 8
-22.242771 -50.890221 0.33163333 3
-22.175341 -50.77232 0.36601305 6
-21.921959 -50.993961 0.3928715 4.5
-21.962715 -50.794178 0.40479004 8
-21.666214 -50.705101 -0.030710701 11
-21.844006 -50.946835 0.21919739 5
-22.249193 -50.79237 0.30886614 5
-21.949821 -50.970295 0.34425044 3.666667
-22.007509 -50.7798 0.36603713 9
-22.094688 -50.775723 0.35950744 10
-21.664841 -50.718716 -0.00257576 9
-21.878685 -50.979992 0.28706503 8
-22.247366 -50.803818 0.32686234 5
-21.949741 -50.995037 0.37657344 5.5
-21.99777 -50.791199 0.39488888 9.5
-22.124641 -50.769772 0.38309467 9
-21.778137 -50.92334 0.19957477 5
-22.235718 -50.8027 0.29693365 5
-22.288223 -50.897007 0.27172738 2
-21.850512 -50.988876 0.28594226 5
-21.923845 -50.991081 0.37419391 4
-21.955555 -50.781193 0.38725269 8
-22.149298 -50.768826 0.36745715 8.666667
-21.796604 -50.962433 0.17337751 9.5
-22.216625 -50.815144 0.28960717 4.75
-21.881933 -50.965633 0.34880245 4
-21.982038 -50.777061 0.3751421 9.5
-22.140148 -50.783119 0.36450142 8.5
-22.248419 -50.799107 0.30750716 6.1999998
-21.870649 -50.990391 0.29282665 5
-21.941889 -50.979927 0.37949622 4
-22.04624 -50.782188 0.38979185 9
-22.160793 -50.76302 0.37685704 9
-22.231182 -50.786221 0.32967114 6.666667
-22.235176 -50.668625 0.212982 2
-21.808889 -50.957241 0.30950606 4.5
-21.915909 -50.966747 0.43603635 4
-21.999949 -50.77256 0.43811572 9.5
-22.165333 -50.774574 0.41353989 9
-22.285162 -50.776913 0.21540487 5.333333
-22.271252 -50.671501 0.14811474 2
-21.872694 -50.979172 0.28673911 4
-21.945408 -50.973248 0.37287295 4
-22.04611 -50.771858 0.37844688 8.5
-22.220591 -50.792877 0.34153813 10.25
-22.292986 -50.798515 0.24520051 5
-22.271303 -50.663311 0.16466123 2
-21.871048 -50.973034 0.27440286 4
-21.952042 -50.983551 0.36618161 4.5
-21.996578 -50.777214 0.38244855 9.5
-22.209349 -50.773647 0.35105765 8.75
-22.292997 -50.791801 0.25255704 5
-21.837757 -50.936405 0.22902238 4
-21.956858 -50.966614 0.36142462 4.333333
-22.0525 -50.760105 0.37799221 9.5
-22.225367 -50.777447 0.35479105 9.333333
-22.269135 -50.805771 0.26442742 4.75
-21.831652 -50.94986 0.24664533 4
-21.935852 -50.955624 0.36742818 4
-22.013414 -50.775158 0.38261485 9
-22.192602 -50.77721 0.35861325 8.666667
-22.282293 -50.893047 0.23403811 5
-22.240364 -50.781528 0.25684381 5.666667
-21.819859 -50.959343 0.27051711 4
-21.905445 -50.984531 0.36761642 4
-21.952681 -50.766865 0.38470477 9
-22.160606 -50.767952 0.35439694 9.5
-22.279911 -50.867977 0.22814834 7
-22.230192 -50.753616 0.26590723 5.5
-22.222557 -50.631927 0.1622057 3
-21.813932 -50.963345 0.28806943 5
-21.897406 -50.952408 0.39674449 3
-21.997793 -50.749367 0.40026832 8.5
-22.177603 -50.7826 0.3673926 10
-21.656874 -50.708664 -0.02532172 11
-22.34132 -50.879993 0.19204485 9
-22.302919 -50.788635 0.22241664 7
-21.87368 -50.967945 0.26410526 9
-21.948383 -51.039642 0.34781373 4
-21.95709 -50.920856 0.38548672 4
-22.055286 -50.771942 0.38161093 9.333333
-22.248859 -50.803608 0.33740813 10
-22.268206 -50.83075 0.22658569 8.75
-21.85095 -50.990372 0.32047796 4
-21.916784 -51.028664 0.39198613 6
-21.999249 -50.768719 0.39930242 9.5
-22.1875 -50.778263 0.34816885 10
-21.899002 -50.912853 0.40077847 3
-21.650074 -50.728577 0.02905691 9
-22.205698 -50.608719 0.21475655 7
-22.281979 -50.785839 0.22259676 8
-21.805838 -50.933731 0.25735641 8
-21.907494 -51.026638 0.37702632 4
-22.065945 -50.759773 0.41191447 9.5
-22.211918 -50.780228 0.3647722 10.25
-21.92021 -50.913857 0.41702521 4
-21.936712 -50.792698 0.422243 10
-22.312561 -50.786049 0.17577636 7.25
-22.229729 -50.610878 0.18629563 8
-21.837984 -50.942593 0.238078 8.5
-21.95225 -51.05022 0.36443537 5
-22.077099 -50.758415 0.37860912 10
-22.236551 -50.789684 0.33795989 10.75
-21.926222 -50.816849 0.38597035 3
-21.955221 -50.960728 0.38460129 4
-21.950115 -50.783733 0.3900438 10
-21.676041 -50.729992 -0.023613689 11
-22.311405 -50.807755 0.1923635 8.25
-21.901419 -50.99342 0.30716872 4
-21.961071 -51.009041 0.37078559 6
-22.047928 -50.764244 0.37764502 9
-22.236338 -50.781574 0.32554471 10
-21.945644 -50.905827 0.3815937 3
-21.876276 -50.977989 0.14497566 12
-22.311127 -50.801479 0.197788 8.25
-21.843254 -50.939117 0.2385909 5
-21.94767 -51.004421 0.35200435 4
-22.01816 -50.784187 0.37685132 10
-22.230984 -50.784588 0.33160186 9.8000002
-21.945087 -50.866852 0.38095456 3
-22.316244 -50.833786 0.23813927 9.25
-21.85733 -50.955536 0.25660217 4.5
-21.971039 -51.036079 0.37761813 6
-21.95734 -50.926876 0.38738012 3
-22.037603 -50.782402 0.3932333 7.333333
-22.244343 -50.789005 0.34675324 10.5
-22.307487 -50.78791 0.22340077 7.75
-21.864719 -50.967918 0.26557386 4.5
-21.96455 -51.026905 0.37598491 4
-21.956606 -50.927406 0.39035153 3
-22.079699 -50.776196 0.39361709 9
-22.240965 -50.785774 0.34835911 10.25
-21.893314 -50.987751 0.11866039 13
-22.300941 -50.777721 0.19045717 7.5
-21.86557 -50.961872 0.23545629 5.5
-21.966055 -51.02317 0.34628558 5
-21.954195 -50.91724 0.35857034 3
-22.061733 -50.767735 0.35738105 9
-22.235842 -50.787506 0.32008988 10.25
-22.253845 -50.770569 0.24550635 6.75
-21.801691 -50.94519 0.24961233 4.5
-21.911629 -51.018475 0.36842942 7
-21.910603 -50.889233 0.39842546 3
-22.011288 -50.760101 0.39463973 9
-22.195751 -50.776714 0.35816407 10
-22.295294 -50.7817 0.23289961 8.5
-21.915169 -51.008842 0.33181453 4
-21.830776 -50.936653 0.24235678 5
-21.96106 -51.002327 0.38555896 4
-21.941103 -50.879498 0.3915174 3
-22.035706 -50.760197 0.38904357 8.5
-22.220795 -50.77298 0.35290724 10.25
-22.278538 -50.748283 0.20640326 7.5
-21.841677 -50.952412 0.27542818 4
-21.931709 -51.026489 0.36609733 6
-21.946688 -50.969608 0.39757335 3
-22.021931 -50.770538 0.3936972 9.333333
-22.222551 -50.788071 0.34926975 10.25
-22.263308 -50.782673 0.20709372 8.5
-21.812759 -50.950783 0.24486464 5.5
-21.926304 -51.036106 0.36647582 5
-21.924427 -50.936966 0.38284075 5
-22.029879 -50.765213 0.37487364 9
-22.19739 -50.786034 0.33434749 10.5
-22.222893 -50.819542 0.30032623 11
-22.247047 -50.742283 0.20834553 7.666667
-21.848894 -50.985905 0.30063593 4
-21.891171 -50.782452 0.38795924 4
-21.918581 -51.016651 0.37129843 8
-21.903355 -50.913544 0.38003993 4
-22.037636 -50.751648 0.37954557 9
-22.183556 -50.775986 0.34721613 10
-21.71899 -50.793888 0.058885459 9
-22.288742 -50.759632 0.21767318 8.5
-21.882446 -50.970337 0.27777898 7
-21.950453 -50.805634 0.38252443 6.5
-21.954704 -51.025986 0.35561049 7
-21.94997 -50.942543 0.37192762 2
-22.098808 -50.754578 0.37140989 9
-22.235712 -50.78138 0.33643156 9.333333
-22.295927 -50.753933 0.2128315 8
-21.905767 -50.993458 0.2847712 4
-21.91025 -50.880383 0.31145 3
-21.973431 -51.020977 0.35413635 6
-22.090939 -50.768559 0.36637855 8.5
-22.23983 -50.783569 0.33379328 10
-22.335438 -50.769775 0.24210525 7.75
-21.968782 -51.011135 0.32017392 5
-21.898262 -50.960922 0.2416802 6
-22.0105 -51.007534 0.37218875 4
-22.00001 -50.901009 0.38365018 3
-22.110905 -50.770836 0.38285148 8.5
-22.267982 -50.787918 0.35406399 10.333333
-21.8792 -50.961266 0.2077601 9.5
-22.294338 -50.794918 0.30216563 8
-21.957954 -51.024876 0.35025281 4
-21.979818 -50.92659 0.39414543 3.5
-22.054798 -50.772182 0.39313626 9.5
-22.219801 -50.767456 0.37905872 9
-22.268539 -50.784061 0.26064467 8
-21.86116 -50.971718 0.28778815 5.5
-21.941145 -50.947689 0.39040434 5
-22.040983 -50.765244 0.39403373 9.5
-22.202911 -50.768032 0.3633846 10
-21.840075 -50.951759 0.1398198 12.5
-22.270922 -50.789188 0.24550396 6.75
-21.863184 -50.972588 0.27094275 3.5
-21.93755 -50.921371 0.36591625 3.5
-22.021177 -50.761959 0.3679139 9
-22.194063 -50.77507 0.34350967 9.666667
-21.829889 -50.929489 0.21095824 5
-22.275011 -50.772694 0.26295841 7.5
-21.924713 -51.00724 0.30666524 6
-21.971689 -51.013664 0.36314309 5
-21.953749 -50.8941 0.36956811 4
-22.063854 -50.775154 0.37103033 8.5
-22.208124 -50.769531 0.35001576 9.5
-21.832319 -50.93684 0.17987883 8.5
-22.242916 -50.784424 0.31472743 8.1999998
-21.904316 -51.008335 0.30420208 3
-21.965397 -51.027046 0.36915493 5
-21.946573 -50.907963 0.37481272 4
-22.061613 -50.76664 0.37286329 9.5
-21.846251 -50.960861 0.22792387 6.5
-22.119936 -50.757019 0.3507967 8
-22.238754 -50.780651 0.30718619 6.75
-21.951515 -51.043022 0.34490848 5
-21.94931 -50.943855 0.36063266 4
-21.981625 -50.781269 0.36129814 8.5
-21.836718 -50.941463 0.24334961 4
-21.92786 -51.023075 0.33621365 4
-22.077421 -50.765224 0.37450111 9
-22.226818 -50.777493 0.33774298 7.25
-21.947817 -50.926018 0.37883323 3
-21.983559 -50.783028 0.38254052 8
-21.790035 -50.935532 0.22901285 6
-21.87697 -51.010048 0.32012236 5
-22.075111 -50.767933 0.38068604 8
-22.201521 -50.780235 0.33651507 7.5
-21.920063 -51.019131 0.37506521 3
-21.913698 -50.909725 0.38713443 4
-21.975075 -50.770275 0.38285637 9
-21.764414 -50.964523 0.33482617 3
-22.151527 -50.769485 0.37567914 7.8000002
-21.854488 -51.028904 0.42399222 6
-21.858912 -50.869122 0.45012951 6.5
-21.978443 -50.767826 0.43968952 9
-21.767509 -50.910667 0.20401007 5
-22.259029 -50.821609 0.24345142 9
-22.219311 -50.779057 0.29032183 10.666667
-21.870014 -51.000053 0.3069244 6
-21.906923 -50.903164 0.37665117 3
-21.924826 -51.009384 0.36789888 8
-21.978802 -50.786995 0.38403237 9
-22.102589 -50.756931 0.37017369 9
-22.188265 -50.780548 0.35337722 10
-21.822655 -50.960365 0.18337011 10.333333
-22.233984 -50.770836 0.28241003 8.5
-21.890268 -51.007835 0.32569003 6
-21.909111 -50.878986 0.38163149 3
-21.933615 -50.998589 0.37766784 6
-22.049339 -50.773121 0.37960577 9
-22.044863 -50.757862 0.37496984 9
-22.189837 -50.779263 0.36152589 10
-21.840357 -50.958096 0.18618178 16
-21.798088 -50.921261 0.23660886 7
-22.246031 -50.754303 0.28845203 8.5
-21.871536 -50.986286 0.32167399 5
-21.926762 -50.854218 0.41049409 5
-21.933683 -51.017269 0.39021057 5
-22.005489 -50.766502 0.40541351 10
-22.096155 -50.760464 0.40171361 10
-22.188995 -50.75359 0.38025868 9.5
-21.839178 -50.922657 0.19549268 7
-22.297745 -50.75576 0.25089043 8
-21.891634 -50.975471 0.26940894 5
-21.97086 -50.85685 0.38959599 2
-21.97356 -51.000404 0.36362809 4
-21.999037 -50.768234 0.38460517 9
-22.128576 -50.754997 0.37485641 9
-22.248854 -50.7743 0.35129714 9.5
-22.290859 -50.783806 0.27509636 9
-21.943409 -51.030609 0.35380006 4
-21.860058 -50.95705 0.265324 4
-21.9603 -50.919788 0.39390165 3.5
-22.079954 -50.762764 0.39336121 8.666667
-22.237265 -50.784813 0.36705029 10
-22.314083 -50.784351 0.2526263 8.75
-21.957289 -51.009521 0.32246625 5
-21.872835 -50.946198 0.23541498 4
-22.001047 -51.000423 0.37437707 4
-21.975988 -50.867661 0.37668204 3
-22.110249 -50.756626 0.3720125 9
-22.260956 -50.769009 0.34036028 9.5
-21.846634 -50.940857 0.22427869 8
-22.291986 -50.771168 0.27963024 7.5
-21.88693 -50.975616 0.2885744 4
-21.954683 -51.02478 0.3642118 4
-21.962608 -50.890884 0.39756739 3
-22.061951 -50.757786 0.39368594 8.666667
-22.235367 -50.764809 0.36932325 9
-21.661459 -50.712696 -0.023813009 13
-21.850555 -50.95023 0.17013866 15
-22.272261 -50.749443 0.24751061 5.75
-21.922588 -51.014614 0.33049625 4
-21.828072 -50.935822 0.23570144 4
-21.950109 -50.92762 0.38096666 4
-22.028519 -50.767975 0.38394332 8.5
-22.199636 -50.7631 0.35704637 9.333333
-22.25424 -50.806999 0.27452248 8.25
-21.894932 -51.020996 0.3392477 5
-21.814854 -50.954288 0.25353658 5
-21.923628 -50.935585 0.38973737 4
-22.000599 -50.772579 0.39056754 9
-22.175421 -50.772465 0.36538446 9.666667
-21.783991 -50.940224 0.19657964 11
-22.21909 -50.744926 0.23012644 6.5
-21.820074 -50.978424 0.25948077 5
-21.888483 -51.02737 0.33474714 5
-21.898293 -50.906296 0.36978036 3
-21.960863 -50.764118 0.36688286 9
-22.149937 -50.777199 0.34730178 9
-22.213388 -50.760361 0.27387726 7.8000002
-21.867758 -50.998337 0.27444172 5
-21.925056 -51.019901 0.33790958 5
-21.913357 -50.856339 0.35501373 4.5
-22.046072 -50.773342 0.34846449 9.5
-21.802708 -50.945438 0.22495508 4
-21.887079 -51.008739 0.31186199 4
-22.043692 -50.764297 0.35189217 9
-22.185432 -50.757008 0.30756676 8
-21.918549 -50.976978 0.35259032 4
-21.919897 -50.811798 0.35484064 6
-21.845821 -50.950554 0.19523704 10
-21.934488 -50.988518 0.29832882 5.5
-21.959742 -50.822567 0.32552248 6
-22.082939 -50.742523 0.31507057 8
-22.190126 -50.762146 0.30254501 8.5
-21.880798 -50.96043 0.35118115 2
-21.895229 -50.804127 0.35545295 6.5
-22.029009 -50.740509 0.34955049 9
-21.967039 -50.812981 0.42476302 6.5
-21.811728 -50.95256 0.24894458 7
-21.894207 -50.97728 0.34603286 4
-21.925629 -50.828876 0.35837406 6
-22.053204 -50.742439 0.34723228 10
-22.171362 -50.806419 0.33409053 10
-22.148565 -50.725636 0.33942127 7
-21.831238 -50.944633 0.31615508 7
-21.913139 -51.008217 0.40480423 6
-22.058428 -50.75806 0.44042563 9
-22.237103 -50.78006 0.36535585 9
-22.188801 -50.756329 0.41548967 9
-21.922796 -50.950539 0.43113744 3
-21.938416 -50.811764 0.44376409 6
-22.327562 -50.749771 0.29874384 7.75
-21.969267 -50.979282 0.30056816 4
-22.03162 -51.014225 0.3714056 5
-22.048027 -50.814121 0.38447642 7.666667
-22.188725 -50.744034 0.37499005 10
-22.273359 -50.746281 0.37125874 8
-22.088036 -50.766285 0.35060108 8.25
-21.764109 -50.843102 0.45996571 5.5
-21.887466 -50.749676 0.45301056 9.5
-22.026947 -50.754513 0.43603528 9
-21.79026 -50.924004 0.17945385 7
-22.249306 -50.752911 0.21969032 7.75
-21.853106 -50.973545 0.25743496 5
-21.909878 -50.829144 0.35809302 2
-21.929794 -51.030399 0.33843994 6
-21.938776 -50.860939 0.357535 6
-22.088261 -50.75547 0.35120529 9
-22.215418 -50.818748 0.32278502 10
-22.188711 -50.764145 0.33453137 10
-22.012684 -50.74213 0.37611276 8
-22.115704 -50.758221 0.32145667 7.75
-21.820873 -50.854229 0.39349329 6.5
-21.821951 -51.014565 0.37796223 3
-21.91737 -50.765488 0.38709772 9
-22.30345 -50.805332 0.30937368 10.666667
-22.291115 -50.762798 0.31688905 9
-21.959208 -50.996052 0.3556394 3
-21.985584 -50.832306 0.4051981 5.333333
-22.087784 -50.760693 0.39777195 10
-22.221233 -50.752552 0.38461697 9
-22.393612 -50.786774 0.29414868 9.3999996
-22.05901 -51.006779 0.35602868 4
-22.058882 -50.887505 0.38361621 3
-22.248898 -50.757778 0.38595688 9.666667
-22.400885 -50.820793 0.23703015 6.75
-21.972818 -50.985931 0.28954446 5
-22.051235 -50.963192 0.38978308 4
-22.139433 -50.776524 0.39754212 9.5
-22.330126 -50.798843 0.35821939 9.75
-22.320337 -50.851135 0.29668319 5.1999998
-21.871836 -50.955547 0.30021811 5
-21.974394 -50.977039 0.41875184 4.5
-22.020603 -50.783775 0.43004084 6.666667
-22.24638 -50.777332 0.40042555 9
-21.877932 -50.966892 0.095466077 14
-22.315538 -50.846493 0.17096186 4.333333
-22.280752 -50.661411 0.12488562 3
-21.842669 -50.944466 0.1958341 4
-21.946039 -50.999527 0.30501276 5.5
-21.998451 -50.837414 0.34004927 6.5
-22.225115 -50.787247 0.3081665 9.5
-22.229446 -50.830177 0.206761 6
-21.791992 -50.956284 0.26657474 4
-21.868822 -50.9818 0.35843217 3
-21.910944 -50.775311 0.37303317 7.333333
-22.163095 -50.781551 0.32301319 10.666667
-22.094191 -50.729 0.362248 9
-22.15344 -50.820137 0.11863095 8.1999998
-21.79513 -50.871819 0.26583081 3
-21.808544 -50.987232 0.25590444 3
-21.908047 -50.753899 0.26464963 9
-22.080715 -50.767647 0.2334919 10
-22.114408 -50.777809 0.30667168 9.6000004
-21.81138 -50.968567 0.35910392 4
-21.854073 -50.763771 0.37722975 8
-21.984228 -50.745102 0.36540622 9
-21.771433 -50.900673 0.16799724 7
-21.859324 -50.975002 0.26340699 6
-22.172932 -50.769688 0.30200344 10
-21.919024 -51.005333 0.33249974 4
-21.905569 -50.893749 0.34270453 3
-21.976465 -50.767704 0.34527427 9
-21.773849 -50.949902 0.29689753 10
-21.841885 -51.008175 0.37849879 4
-21.90077 -50.848999 0.40715986 6
-22.115253 -50.758945 0.37403607 10
-21.848419 -50.791176 0.41516435 8
-21.793381 -50.984173 0.31144583 4
-21.95957 -50.749859 0.3681798 9
-22.147118 -50.788525 0.29351532 10
-22.096312 -50.758221 0.34494966 10.333333
-21.839737 -50.979061 0.36772788 3
-21.843166 -50.808132 0.37392282 7
-21.784454 -50.936882 0.33002883 5
-22.191793 -50.784187 0.37954557 11
-22.138922 -50.73719 0.44462669 7
-21.892769 -51.006931 0.44955659 4
-21.958925 -50.7943 0.45409864 7.333333
-22.25853 -50.589649 0.18039715 7
-21.803064 -50.906803 0.25707287 6
-22.253239 -50.782536 0.34714556 10.5
-21.863617 -50.954231 0.33417439 4
-21.938873 -50.968342 0.42397654 3.5
-22.040558 -50.752445 0.43329126 9
-22.201155 -50.74538 0.41388071 9
-22.282167 -50.801075 0.24866641 11
-21.921047 -50.978348 0.22012115 4
-21.984701 -50.966843 0.29847503 4.5
-22.081894 -50.77264 0.30934656 9.666667
-21.67791 -50.699356 0.088799603 12
-21.865309 -50.942509 0.36967605 4
-22.271412 -50.792553 0.3998605 10.333333
-21.956139 -50.983746 0.47252262 4
-22.003544 -50.777172 0.48415124 7
-22.198727 -50.749893 0.46705729 10
-21.856243 -50.926037 0.22587097 5
-22.313129 -50.791702 0.27652276 10.25
-21.969818 -50.977623 0.36056936 4.333333
-22.020882 -50.782528 0.39543736 7
-22.23349 -50.7659 0.37007481 9.666667
-21.946033 -50.9632 0.19112307 15.5
-22.362814 -50.79491 0.28648472 10.333333
-22.399801 -50.850952 0.2463752 12
-22.02511 -50.958408 0.37163305 3.75
-22.076994 -50.769543 0.39951622 9
-22.272579 -50.772137 0.37720811 9.5
-21.971046 -50.94281 0.17941821 13
-22.401171 -50.808594 0.28508878 10.666667
-22.390213 -50.739498 0.28245091 8
-22.060907 -50.980427 0.33895648 5
-22.097973 -50.805836 0.38185513 5.5
-22.214344 -50.753918 0.3734237 10
-22.305721 -50.724518 0.36055672 9
-22.357306 -50.780571 0.35802662 9
-21.771313 -50.68631 -0.018915061 10
-21.989985 -50.960361 0.24422646 7
-22.350613 -50.782352 0.33460957 9
-22.356403 -50.75148 0.30170321 6.666667
-22.067179 -50.989071 0.33854377 3.5
-22.136318 -50.806023 0.36031359 7.333333
-21.954144 -50.989391 0.33632326 3.5
-22.035294 -50.770176 0.36944759 9
-22.216801 -50.755569 0.34122479 6
-21.962097 -50.873142 0.3655352 5
-21.908665 -50.971722 0.34358001 3.5
-22.037273 -50.755692 0.39380175 9
-22.206406 -50.763878 0.36540842 6.5
-21.943058 -50.852924 0.40148169 5
-21.903736 -50.952629 0.29851949 4
-21.961887 -50.989243 0.3697176 2
-22.076342 -50.756081 0.39371443 8
-22.240677 -50.764523 0.36413836 5
-21.975925 -50.912106 0.3926906 4
-21.98399 -50.775223 0.40178227 9
-21.880749 -50.936691 0.25938588 5
-21.967802 -51.010101 0.35361755 3
-22.23288 -50.774052 0.3617264 5.1999998
-21.984638 -50.903393 0.39060616 4
-22.029648 -50.78479 0.40008926 9
-21.905205 -50.949375 0.23874748 5
-21.985033 -51.010303 0.32670546 3
-22.257486 -50.78981 0.34536946 4.5999999
-22.013006 -50.97184 0.3661465 3
-22.020199 -50.82375 0.37460625 5.5
-21.884197 -50.943867 0.22249627 6
-21.966114 -51.008312 0.31208372 4
-22.214048 -50.776508 0.33980989 4.25
-22.29903 -50.952038 0.32824457 2
-21.991329 -50.976192 0.35258305 2
-21.999487 -50.822636 0.36228573 6
-21.912382 -50.988953 0.31756973 3.5
-21.938255 -50.807152 0.34853578 5.5
-22.155939 -50.786217 0.332847 3.75
-21.782162 -50.941555 0.2627399 6
-21.86824 -50.968109 0.36388785 3.5
-21.92617 -50.781166 0.38695073 8
-22.119955 -50.810726 0.37079304 3.333333
-21.843615 -51.00666 0.33562165 4
-21.923891 -50.804066 0.37309092 7
-22.12755 -50.780716 0.34252578 3.666667
-21.774818 -50.943195 0.25749457 6.5
-21.881134 -51.003105 0.37283689 5
-21.93321 -50.796242 0.37681663 6.666667
-22.146208 -50.772461 0.34787756 4.666667
-21.815495 -50.955559 0.25387478 4
-21.893467 -50.95937 0.34476805 4.5
-22.032236 -50.751228 0.35265976 9.5
-22.169424 -50.763264 0.32637656 6
-21.850443 -50.987598 0.3862263 5
-21.889137 -50.9207 0.4430756 4
-21.998299 -50.751137 0.44158763 8.5
-22.15106 -50.749397 0.43371212 5
-21.939522 -50.942196 0.34150708 3
-21.9963 -50.776428 0.34333384 6.333333
-21.924562 -50.966064 0.44734311 2
-21.971565 -50.819172 0.45825738 4
-21.83234 -50.965813 0.32369709 4
-21.873108 -50.953915 0.37627971 2
-21.947853 -50.796391 0.39701337 2.666667
-22.048 -50.980946 0.42051381 2
-21.767761 -50.945755 0.26901346 8
-21.845348 -50.967194 0.36528909 3
-21.90156 -50.792431 0.39426887 4
-22.01763 -50.969074 0.38374501 3
-22.031134 -50.799019 0.38323212 2
-21.823385 -50.960178 0.27795255 5
-21.889229 -51.00666 0.35510236 2
-21.957417 -50.803276 0.37739199 4
-22.094902 -51.008286 0.37317467 2
-22.109758 -50.773129 0.35558063 1
-21.819704 -50.952972 0.25564861 4
-21.760859 -50.900745 0.17562789 8
-21.902618 -51.019188 0.3448056 3
-22.018757 -50.753025 0.36004913 6
-22.144457 -50.960442 0.33210951 2
-22.155312 -50.791843 0.34956032 1
-21.903763 -50.920006 0.36260128 4
-21.811321 -50.951019 0.23270512 6.5
-21.901087 -50.885445 0.3577463 3
-21.910892 -51.00856 0.34770924 2
-21.996628 -50.77129 0.35791576 6.5
-22.150475 -50.997208 0.34488702 2
-22.146042 -50.761322 0.34056121 1.5
-21.848207 -50.957741 0.31875885 4.333333
-21.897869 -50.814037 0.39115381 5
-22.063923 -50.758255 0.37141585 4.333333
-22.132462 -50.947922 0.36975622 2
-21.81473 -50.969143 0.33861631 6.666667
-21.869408 -50.810123 0.40776968 5.5
-22.049511 -50.753246 0.39200073 4
-22.125668 -50.923973 0.39053786 2
-21.753983 -50.897148 0.20706993 7
-21.873133 -50.944298 0.34954804 4.333333
-21.955297 -50.765331 0.3857007 8
-22.094055 -50.735672 0.37603605 5
-22.189026 -50.957077 0.37711477 2
-22.183311 -50.79187 0.3673476 2
-21.804314 -50.921894 0.18244243 7.5
-21.909761 -50.979046 0.31977856 3
-21.932388 -50.807106 0.35135132 5.5
-22.126806 -50.76392 0.34210932 4.666667
-22.211733 -50.912663 0.33833414 2
-21.872082 -50.954731 0.3168546 4.333333
-21.903387 -50.786541 0.37186205 8
-22.071737 -50.769714 0.35610074 4.333333
-21.91279 -50.944561 0.36922514 3
-22.014982 -50.760536 0.3640393 5
-21.900057 -50.857349 0.38936263 3
-21.958603 -50.773922 0.39018846 8
-21.916483 -50.795952 0.40531921 6
-21.920883 -50.910751 0.39077765 2
-21.927631 -50.776817 0.39827257 7
-22.030554 -50.755608 0.38897097 4
-21.909193 -50.909405 0.38883555 2.5
-22.035734 -50.775997 0.40187496 4.5
-21.912477 -50.96312 0.36046696 3
-21.92452 -50.853081 0.39532733 3
-22.05394 -50.76844 0.38405669 4.333333
-21.901308 -50.972874 0.33023846 3.5
-21.911226 -50.865536 0.36517507 2
-22.074041 -50.792217 0.36973047 3.666667
-21.917694 -50.954735 0.36206126 3.5
-21.921917 -50.790154 0.38146347 8
-22.052952 -50.769745 0.36408055 4
-21.909086 -50.910488 0.35114467 3
-21.915861 -50.81863 0.36897188 5
-22.011269 -50.765869 0.36816788 5
-21.893002 -50.834305 0.3894217 5
-21.965416 -50.775394 0.3965255 5
-21.90852 -50.885101 0.39803022 2
-21.996857 -50.746113 0.38902283 3
-21.930933 -50.956898 0.37125647 3
-21.915834 -50.851418 0.37698972 3
-22.051083 -50.781334 0.38598293 5
-21.920977 -50.955391 0.36117178 2.5
-21.940908 -50.796368 0.38706428 7
-22.093473 -50.802319 0.38488328 3
-21.914879 -50.954727 0.37132907 3
-21.926579 -50.783836 0.39158785 8
-22.054226 -50.779842 0.37667227 3
-21.906631 -50.969486 0.38742286 2
-21.896448 -50.86129 0.39416885 2
-22.017227 -50.765224 0.39176542 4
-21.89962 -50.932716 0.3920542 2.5
-21.907652 -50.785679 0.41543257 6
-22.04002 -50.787678 0.40293014 3.5
-21.910702 -50.964527 0.37010872 2.5
-21.909321 -50.822132 0.39019644 3
-22.039656 -50.780708 0.38518673 4.333333
-21.913189 -50.97871 0.37041855 3
-21.934875 -50.895107 0.39258027 11
-22.022837 -50.790894 0.39385468 4.666667
-21.911787 -50.938259 0.38110906 3
-21.914709 -50.819866 0.40765107 2
-22.031811 -50.795166 0.40082031 3.666667
-21.907467 -50.976265 0.36612123 4
-21.92042 -50.870407 0.39863759 5
-22.068495 -50.779488 0.38600779 3.333333
-21.871756 -50.954876 0.29035532 8
-21.919043 -50.805607 0.38471425 2
-21.944534 -50.965729 0.37750173 7.5
-22.071108 -50.776608 0.37225819 3.75
-21.888294 -50.958076 0.32867473 4
-21.909008 -50.827381 0.38104928 2
-22.053982 -50.749767 0.37460566 4.666667
-22.139864 -50.916897 0.37600327 2
-21.900961 -50.990307 0.35764873 3
-21.916691 -50.888187 0.3952111 4
-22.034359 -50.747707 0.38582981 6
-22.149979 -50.932995 0.38412106 2
-22.144424 -50.78746 0.3777355 2
-21.854887 -50.961216 0.34314162 4
-21.889433 -50.837395 0.40433329 5
-21.98984 -50.756462 0.40381992 7
-22.158175 -51.007248 0.40577918 2
-22.148926 -50.75996 0.38565075 2
-21.844095 -50.970299 0.29440284 6.333333
-21.892532 -50.901733 0.37431812 3
-22.073549 -50.746708 0.36772501 5
-22.195183 -50.986908 0.37001103 2
-22.176918 -50.852325 0.358877 2
-21.774874 -50.920738 0.21613646 9
-21.866453 -50.976814 0.32781625 3.5
-21.887163 -50.890507 0.3722831 2
-22.067232 -50.749928 0.3694064 5
-22.193727 -51.002319 0.37800044 2
-22.175697 -50.775326 0.33956075 1
-21.893423 -50.949837 0.32790697 4.666667
-21.940302 -50.802235 0.38688344 5.5
-22.107002 -50.741524 0.37442333 5.5
-22.205261 -50.954945 0.37847674 2
-22.201044 -50.749969 0.35244083 1
-21.952202 -50.95998 0.36747557 2.666667
-21.975029 -50.780426 0.40487778 8
-22.144342 -50.791756 0.38639069 3.666667
-21.959099 -50.959156 0.37696803 2.5
-22.045074 -50.812149 0.39209038 3.5
-21.970331 -50.975498 0.36765492 7
-22.071388 -50.821041 0.38878131 2.75
-21.885162 -50.939495 0.25850749 5
-21.977692 -51.023773 0.35648721 2
-22.018206 -50.815292 0.37547785 3.75
-22.165092 -50.942661 0.37009585 2
-22.174124 -50.763905 0.36013967 2
-21.900894 -50.95697 0.26565057 4
-22.049658 -50.982059 0.35065109 2.5
-21.99807 -50.80135 0.35602772 4
-22.148853 -50.760906 0.34952778 1
-21.966654 -51.006203 0.35649896 10
-22.005125 -50.826241 0.36466748 3.5
-21.953804 -50.863579 0.37109232 2.5
-21.941044 -50.804726 0.39084405 2
-21.956169 -50.858582 0.39353925 2.333333
-21.891043 -50.993034 0.38707584 3
-21.922892 -50.842484 0.42414105 2.333333
-22.024704 -50.921223 0.41800416 2
-22.01837 -50.746525 0.40696108 1
-21.966904 -51.017673 0.40633589 2
-21.920242 -50.936127 0.36908734 2.5
-22.004301 -50.76828 0.40288007 6
-22.14497 -50.998589 0.36672705 2
-22.147339 -50.87928 0.37072873 1
-22.129835 -50.755116 0.38894635 2
-21.840208 -50.969891 0.20530975 8
-22.176617 -51.05373 0.32792604 2
-22.174877 -50.986698 0.34405917 2
-22.141325 -50.764027 0.34839237 2.666667
-21.933247 -51.03912 0.35923052 4
-21.912163 -50.922329 0.36437136 2
-21.997871 -50.784367 0.37281436 7
-21.800688 -51.018597 0.29986691 4
-21.953833 -50.789627 0.35570872 5
-22.101471 -51.00415 0.31864631 2
-22.102224 -50.866096 0.33833164 1
-22.050507 -50.780926 0.35390401 2
-21.849604 -51.019848 0.35837799 3
-21.854172 -50.848713 0.36587238 5
-21.802485 -50.814781 0.35019416 7
-21.926003 -50.76609 0.33142418 3.5
-22.011017 -51.050793 0.34257472 2
-22.009333 -50.824623 0.3202852 1
-21.745087 -50.826561 0.38287526 5
-21.957808 -50.804989 0.36401105 4.25
-21.799829 -50.934555 0.36356473 3.666667
-21.887384 -50.759071 0.39105093 10
-22.06369 -50.763912 0.37404197 4.666667
-21.752131 -50.937588 0.32747364 7
-21.852684 -50.955132 0.44819611 4
-21.999949 -50.744423 0.44728827 8.5
-22.141701 -50.771904 0.40487295 6.333333
-21.830669 -50.777157 0.45731807 4
-21.882658 -50.964413 0.24207819 9.333333
-22.268946 -50.786098 0.33586133 7.4000001
-21.96961 -50.918621 0.41029549 4
-21.971508 -51.01981 0.39545596 4
-22.094833 -50.769951 0.40501249 9
-21.705957 -50.75639 -0.058048841 13
-21.819115 -50.930321 0.1954993 5.5
-22.246119 -50.788544 0.27759904 7.4000001
-21.928154 -51.021408 0.32070321 4
-21.938093 -50.806374 0.35904336 6
-21.938675 -50.946991 0.34722054 3
-22.084665 -50.758194 0.3458882 8.5
-21.823204 -50.934113 0.22792721 8
-22.172178 -50.740112 0.3834396 8
-22.236465 -50.781067 0.34008908 9
-21.905495 -51.005856 0.3390274 4
-21.9426 -50.932987 0.39570165 4.5
-22.036629 -50.770138 0.39826351 9.5
-21.681936 -50.707771 0.0065630702 14
-21.845613 -50.933758 0.27396381 6
-22.241907 -50.790714 0.35881281 7.5999999
-21.947474 -50.947182 0.396837 3.333333
-22.030954 -50.767433 0.40927416 8.5
-21.926121 -50.92907 0.24870825 9
-22.340036 -50.774807 0.33578914 5.4000001
-21.988527 -50.980343 0.32615578 4
-22.039734 -50.952774 0.39637387 3
-22.117504 -50.755894 0.40134799 7
-22.075266 -50.958145 0.32253957 5
-22.407913 -50.749393 0.39839518 5.666667
-22.478325 -50.909462 0.36300904 2
-22.462303 -50.794376 0.35634053 2
-22.15465 -50.974281 0.41393447 5
-22.159225 -50.800983 0.43187034 6.5
-22.27334 -50.743713 0.42303956 9
-21.835949 -50.939941 0.28101289 7
-22.246569 -50.964832 0.3412962 2
-22.234392 -50.800041 0.35424244 2
-21.908607 -50.998379 0.36250496 4
-21.939747 -50.945713 0.41505301 2.5
-22.069815 -50.764973 0.41642594 8.5
-22.19878 -50.749847 0.40064216 4
-22.067072 -50.994583 0.35929078 2
-22.05282 -50.81076 0.36353266 2.666667
-21.748289 -50.772118 0.43068886 8
-21.888315 -50.768772 0.42256403 8.5
-22.015221 -50.758514 0.40815222 4
-22.009674 -50.819897 0.25932682 6
-22.059839 -50.909706 0.19726425 2
-22.040384 -50.852676 0.22571492 3
-21.761873 -50.806087 0.31161833 10
-21.930769 -50.802689 0.2991333 8
-22.06917 -50.756699 0.36181033 7.666667
-21.770613 -50.881359 0.41669726 3
-21.764576 -50.944923 0.39566219 3
-21.913042 -50.733612 0.4081803 9
-21.783285 -50.929787 0.27582771 9
-22.188715 -50.765564 0.34801853 8.5
-22.207184 -50.79023 0.32671994 9.5
-21.862947 -50.911865 0.39099121 3
-21.959743 -50.745544 0.41540843 9
-22.106102 -50.737999 0.40513337 8.5
-22.213785 -50.810974 0.29336601 10
-22.254076 -50.789402 0.22662437 8
-21.897543 -50.963737 0.29270583 3.666667
-21.929611 -50.79081 0.33472574 6.5
-22.126902 -50.770859 0.32443565 8.666667
-21.79611 -50.929565 0.20137024 11.5
-22.227997 -50.796265 0.30030167 8.5
-21.881596 -50.957783 0.35264623 3.666667
-21.915672 -50.800396 0.39755207 5.5
-22.109667 -50.76899 0.38089532 9.333333
-21.83606 -50.951317 0.25309741 9
-22.216337 -50.785072 0.33354622 9
-22.253454 -50.79707 0.27635425 8.333333
-21.904495 -50.953533 0.35031378 3
-21.930006 -50.783794 0.38800162 10
-22.116913 -50.754269 0.36603826 8.666667
-21.863834 -50.962559 0.23143196 12.333333
-22.26432 -50.793396 0.31599367 8.75
-21.942045 -50.979534 0.37895977 3
-21.938555 -50.857677 0.39826882 3
-22.116337 -50.767162 0.39129454 9
-21.86829 -50.932274 0.28014046 6
-22.305672 -50.816486 0.33560991 9
-22.306374 -50.756027 0.31370533 7
-21.955021 -50.961937 0.39261758 3
-21.990078 -50.793858 0.43083143 5.5
-21.975615 -51.004799 0.41185057 2
-22.165077 -50.753864 0.41858602 9.5
-22.259485 -50.793697 0.40466958 10
-22.369852 -50.837257 0.26338238 8.666667
-22.377306 -50.770344 0.21508598 6
-21.968264 -50.981625 0.27614343 3
-22.019505 -50.963898 0.34259725 3
-22.069838 -50.82357 0.3686111 6
-22.330202 -50.812912 0.32707095 8
-22.282526 -50.774773 0.35485703 9
-21.930557 -50.981907 0.25723696 5
