# .PCD v0.7 - Point Cloud Data file format
VERSION 0.7
FIELDS x y z intensity
SIZE 4 4 4 4
TYPE F F F F
COUNT 1 1 1 1
WIDTH 1123
HEIGHT 1
VIEWPOINT 0 0 0 1 0 0 0
POINTS 1123
DATA ascii
-10.835929 5.6299224 4.5223608 0
-10.639059 5.4597645 4.7987261 0
-10.884279 5.5764098 4.6048174 0
-10.711035 5.389173 4.6391091 0
-10.896227 5.5499988 4.8242202 1
-10.751711 5.386085 4.8520041 1
-10.718959 5.3973851 5.096128 0
-10.754356 5.3969169 5.3174448 1
-10.643699 5.5182095 5.1299901 1
-10.698035 5.4827223 4.7761765 0
-10.763276 5.4547381 4.6553588 1
-10.694418 5.4241991 4.743773 0
-10.876719 5.6048269 4.5122085 0
-10.730902 5.3860826 4.8175378 0
-10.668145 5.4862146 4.5972075 0
-10.670082 5.3990669 5.0552897 0
-10.794455 5.436172 5.2911882 1
-10.740723 5.4217296 5.8900795 1
-10.876463 5.32095 4.9769711 0
-10.982964 5.5061016 5.1820674 0
-10.897002 5.4365082 5.0742402 0
-10.749054 5.4986572 6.1859446 2
-10.883457 5.4184532 5.1122642 2
-10.896702 5.4367142 4.9345145 2
-10.93947 5.3492508 5.1983819 57
-10.784374 5.5004921 5.3933892 2
-10.901649 5.4936943 5.1828589 4
-10.845056 5.5538139 5.0358629 2
-10.823864 5.4831429 5.0134869 3
-10.814799 5.5642738 4.6444407 1
-10.768113 5.5947571 4.8276558 2
-10.678656 5.5174103 4.9355612 2
-10.886031 5.5168686 5.0716572 3
-10.73703 5.603199 4.6226139 2
-10.739031 5.5092506 5.5024424 4
-10.793608 5.5527458 4.8494678 1
-10.997875 5.6757698 5.7048097 3
-10.652655 5.6315422 4.7112827 2
-10.706971 5.6040077 5.2408695 3
-10.832879 5.5596695 6.0620017 23
-10.984596 5.4217644 5.4260745 3
-10.869282 5.5643616 5.3911881 1
-10.844934 5.5317039 6.1773419 39
-10.6792 5.5727348 5.3264551 1
-10.650825 5.5851479 6.1208053 20
-10.638531 5.6148453 4.8872924 1
-10.993357 5.7050323 5.7602811 2
-10.958518 5.4126816 6.246871 38
-10.798873 5.6034584 5.3134055 1
-11.017148 5.5047531 6.1624036 7
-10.658552 5.6600685 5.1944027 2
-10.729584 5.6276321 6.0211921 12
-10.69003 5.5481911 4.9099998 2
-10.668158 5.5645981 4.7852149 1
-10.859286 5.4611969 6.3119764 4
-10.794269 5.5493774 4.8805971 3
-10.812666 5.478548 5.1897292 3
-10.95891 5.4474735 6.0073295 1
-10.844667 5.4702091 4.7051539 1
-10.697214 5.4596014 4.6797595 1
-10.888027 5.6188745 4.8373947 0
-10.685606 5.4620066 4.8932438 0
-10.671049 5.3721738 4.6527395 1
-10.836319 5.5201159 4.8200393 0
-10.664548 5.369133 4.8669753 1
-10.847221 5.5714931 4.6902046 1
-10.844993 5.607976 4.9133844 0
-10.781107 5.47155 5.130724 2
-10.768626 5.4688845 5.3585005 1
-10.880547 5.6498604 4.5176792 0
-10.763702 5.4798679 4.5381083 1
-10.81948 5.5115986 4.7340689 2
-10.865423 5.552844 4.939981 2
-10.836737 5.5231333 5.1667252 2
-10.681449 5.509119 5.4598613 0
-10.868441 5.5543289 4.5183959 0
-10.738479 5.3421392 4.5449138 0
-10.720495 5.3481903 4.7738433 0
-10.698453 5.3579922 5.0112257 0
-10.792561 5.3671179 5.1995234 0
-10.679075 5.4831276 4.5261631 0
-10.852369 5.570375 4.6905117 0
-10.84113 5.5728817 4.9200277 0
-10.993246 5.4899654 5.0744333 5
-10.690077 5.4953299 5.4385538 0
-10.89163 5.621182 4.5415144 0
-10.756391 5.4420271 4.8139324 1
-10.754416 5.4458346 5.0483894 1
-10.740747 5.4562683 5.2929273 1
-10.738135 5.4592834 5.5382376 0
-10.712651 5.4789314 6.0523338 1
-10.813948 5.3593998 4.9036322 1
-10.870383 5.5721569 5.2607279 0
-10.695111 5.5517955 4.6191597 0
-10.806622 5.7128716 4.8324051 0
-10.661351 5.5401363 6.154449 0
-10.957112 5.4530888 4.5841355 9
-10.753968 5.4977322 5.4097362 0
-10.795412 5.497839 5.9112706 0
-10.75128 5.5153303 6.2005134 0
-10.955138 5.3472443 5.5066619 6
-10.934834 5.4075851 4.8771095 255
-10.93815 5.6683884 5.8186464 2
-10.854594 5.5844116 5.5885239 2
-10.869632 5.5325012 5.1244211 2
-10.866762 5.5605087 5.1482215 1
-10.8303 5.5271797 6.0979452 32
-10.685863 5.5501976 5.3336978 3
-10.780365 5.49646 6.2603183 30
-10.656402 5.5309906 4.9331403 3
-10.935546 5.646965 5.8535457 2
-10.929312 5.5600128 5.4818234 2
-10.721762 5.5520744 5.1383901 2
-10.696346 5.5768318 5.2394123 2
-10.935897 5.6010094 5.6795988 4
-10.717773 5.5725365 4.8510909 1
-10.78388 5.5971069 5.7504086 3
-10.815315 5.5133247 6.2246494 20
-10.89587 5.6080856 4.9945712 1
-10.7222 5.5404663 5.3165894 1
-10.892552 5.583847 6.0623574 3
-10.920232 5.5698242 5.9938369 4
-10.670044 5.5137291 5.3833618 2
-10.803755 5.4558563 6.2450676 11
-10.657647 5.6152687 5.6776242 1
-10.873974 5.5276337 6.0448408 7
-10.830391 5.55513 5.4325018 1
-10.768947 5.5084915 6.0485997 17
-10.677088 5.6036491 5.3515162 1
-10.816608 5.5017166 6.1546359 39
-10.800211 5.5437737 6.0249391 41
-10.667913 5.5310402 5.5911765 1
-10.922749 5.4454613 6.0361509 18
-10.940231 5.6393318 4.9221559 2
-10.759686 5.5950699 5.7012515 1
-10.735513 5.5008621 5.5026484 2
-10.757586 5.5702248 4.8015628 1
-10.952864 5.6838074 5.6142025 3
-10.746999 5.588253 5.4806056 1
-10.814954 5.5487137 5.348629 3
-10.926867 5.4920845 6.1397429 15
-10.848567 5.5186386 4.6938925 3
-10.811997 5.5277328 5.4739842 3
-10.974964 5.5673294 5.5075059 3
-10.876415 5.4051151 4.8459949 3
-10.662394 5.5914803 5.6686482 2
-10.973579 5.3591805 5.2821002 4
-10.888954 5.4517803 5.5643024 1
-10.892015 5.538723 5.9010186 1
-10.801302 5.5485153 5.3335276 2
-10.845455 5.5128365 6.1092191 40
-10.648857 5.6160431 5.2700095 2
-10.736103 5.5632057 6.0427685 4
-10.915432 5.5350361 5.183537 1
-10.835012 5.5995083 5.533998 2
-10.907517 5.5933743 5.5553226 1
-10.76406 5.4682789 6.310154 24
-10.886256 5.5264854 5.2116923 1
-10.834082 5.5746994 4.7698426 4
-10.754502 5.5794907 6.1231246 25
-10.715525 5.5850449 5.3306875 2
-10.764902 5.5148315 6.1817737 11
-10.87632 5.61199 4.7715039 1
-10.947891 5.566906 5.4791398 2
-11.017536 5.5075207 6.1869016 28
-10.651954 5.5993614 5.3272905 2
-10.706658 5.5522728 6.0276504 15
-10.657392 5.6056232 5.6317878 1
-10.958468 5.5322971 5.390554 1
-10.854526 5.7057686 6.1132841 1
-10.943553 5.5629139 4.9398828 1
-10.646802 5.6678486 5.6372356 1
-10.931495 5.5346355 4.7605767 2
-11.00146 5.4763374 6.101685 1
-10.873427 5.6596413 5.4536481 2
-10.791064 5.5559082 5.285171 2
-10.832368 5.5518723 5.9511943 2
-10.984846 5.581749 4.9265318 1
-10.742363 5.639349 5.5713878 2
-10.757388 5.5446968 5.3388414 2
-10.730132 5.5345135 4.8014426 3
-10.790063 5.5298939 5.4480953 1
-10.785609 5.6165237 5.1660113 2
-10.93222 5.5518494 5.8064179 0
-10.92285 5.5560627 5.5364323 3
-10.975624 5.5317841 6.1557989 24
-10.968095 5.5039711 6.0919046 33
-10.701487 5.5785198 5.6380548 3
-10.874298 5.5378647 4.8810883 1
-10.789341 5.5730629 6.0422554 2
-10.744705 5.6220531 4.6409845 2
-10.739573 5.6615639 5.211926 1
-10.881443 5.5658875 5.765274 1
-10.678074 5.7008219 4.9547682 1
-10.727289 5.6172113 6.0635114 6
-10.776215 5.5609312 4.9782047 2
-10.907637 5.5058222 6.0917592 5
-10.935881 5.616519 5.6228528 5
-10.754604 5.4745684 6.1379046 10
-10.913814 5.6036711 5.6531487 3
-10.757175 5.5606155 6.0319152 16
-10.737442 5.6453686 4.9038329 1
-10.740128 5.6592865 5.4420428 1
-10.843493 5.5176811 5.9522114 1
-10.682982 5.6282291 4.7997618 2
-10.684197 5.7419147 5.3588099 0
-10.771798 5.5747128 5.8524337 1
-10.683681 5.6432915 4.6904225 1
-10.683681 5.6492825 5.2162995 2
-10.741209 5.5937042 5.7314425 1
-10.802635 5.6495123 4.9081182 1
-10.801966 5.670537 5.4281693 1
-10.941555 5.5842638 5.9393973 1
-10.782423 5.6895466 4.6759143 1
-10.799595 5.6121159 5.1710582 3
-10.91477 5.5205936 6.1870027 33
-10.683233 5.6351795 5.0001688 1
-10.683773 5.6629333 5.512517 1
-10.806004 5.5552902 6.0038681 1
-10.697417 5.5668621 4.5949941 1
-10.693331 5.7035055 4.7338386 1
-10.667141 5.6718493 5.2219663 1
-10.718725 5.57936 6.2108369 4
-10.774 5.6627836 5.0951366 0
-10.895517 5.4797573 6.0439224 32
-10.911645 5.4655018 6.3110604 4
-10.64831 5.7347965 5.5670652 2
-10.722073 5.718339 5.5105729 1
-10.658586 5.6216669 4.6705976 1
-10.78678 5.4806108 5.8764067 1
-10.790235 5.4360485 6.2796602 19
-10.713102 5.747201 4.8085766 1
-10.888849 5.6178713 6.0095348 0
-10.647915 5.6984482 5.0653105 1
-10.69519 5.6540837 4.765655 2
-10.827332 5.6255784 4.7511806 0
-10.756477 5.4685674 4.6416988 2.75
-10.887669 5.5656838 4.7163701 0.5
-10.877673 5.4417348 4.7006731 2.458333
-10.797254 5.3913317 4.7221341 1.25
-10.976047 5.5636744 5.1411662 0.5
-10.975506 5.4552579 5.1215262 3.666667
-10.88668 5.5912752 5.0641346 0
-10.841406 5.4277911 5.1706076 1.75
-10.737374 5.5902977 4.7433949 0.53571397
-10.726686 5.550848 5.1044507 1.333333
-10.88199 5.6325145 4.7309337 0
-10.864875 5.5234623 4.7231884 2
-10.792963 5.482285 4.7430663 1.5
-10.83819 5.4637833 4.688911 1
-10.760024 5.3663836 4.5826106 1.5
-10.836659 5.5071945 4.7321129 1
-10.729939 5.4044852 4.760304 1
-10.847183 5.5493574 4.7002544 1.5
-10.764031 5.4280224 4.7204843 1
-10.843855 5.5627098 4.9653516 1
-10.755621 5.4445057 4.9878144 1
-10.8437 5.4842753 4.782917 1.2
-10.83138 5.6430445 4.5521688 0.33333299
-10.789521 5.5131326 4.5601106 1.666667
-10.735476 5.6453085 4.7014246 1.25
-10.774534 5.6609287 5.1037836 1.2
-10.811365 5.4792113 4.5867109 1.5
-10.660641 5.405848 4.7777958 0
-10.823241 5.5205736 4.9994297 0.80000001
-10.737508 5.4119868 5.0308371 1
-10.697069 5.4146771 5.328022 0.5
-10.940616 5.4987421 5.6631937 1.875
-10.768042 5.4749293 5.7332754 1.666667
-10.812494 5.5081229 6.1560907 6.5
-10.952787 5.5326405 4.9050407 0
-10.979808 5.3640337 5.0369968 2.083333
-10.893442 5.3063488 5.0646019 1.25
-10.970675 5.4127278 5.7657228 1.166667
-10.900746 5.3821707 4.7780728 0
-10.934859 5.3340273 5.1920638 0
-10.916825 5.3892555 5.6418691 0
-10.878088 5.4963675 5.6719213 0
-10.867551 5.3526402 6.2481418 0.5
-10.788034 5.4306984 5.3189411 0
-10.8163 5.388792 5.7528009 0
-10.785507 5.4003382 6.2198701 0.60000002
-10.967407 5.5543308 4.9755988 1
-10.919182 5.5783796 6.1040978 4
-10.994442 5.6489391 5.8267407 3
-10.996006 5.6676598 6.1520514 14
-11.01099 5.6585922 6.3007751 3
-10.851456 5.4640198 5.3823614 3
-10.892658 5.5952835 5.5704327 2
-10.869698 5.5831604 6.1406398 3
-10.9053 5.5403671 6.1091495 9
-10.789524 5.4832764 5.4000497 3
-10.967293 5.6359253 4.8875079 2
-10.900497 5.5800514 6.0192246 36
-10.890835 5.5132713 5.6803484 2
-10.950466 5.6304741 5.946651 2
-10.973541 5.607933 4.5940781 2
-10.916004 5.564167 6.18048 23
-10.951267 5.5741005 5.037179 2
-10.986706 5.5677528 5.4186053 3
-10.957161 5.5585861 5.6931748 3
-10.941479 5.5386429 6.2324882 14
-10.906303 5.4874992 6.0810037 11
-11.008183 5.5772324 6.1192555 5
-10.89772 5.4875908 6.069387 4
-10.840946 5.4588547 5.2885971 2
-10.924301 5.5296478 5.2717233 3
-10.886463 5.5391579 6.1073093 21
-10.890579 5.5408173 4.948 2
-10.952381 5.5666885 6.2476454 6
-10.864891 5.4366531 6.0480919 11
-10.934013 5.5001411 4.5786538 3
-10.901417 5.4824448 6.0745502 39
-10.99696 5.4885521 5.6069674 3
-10.954132 5.3963242 5.5993438 2
-10.924545 5.565155 5.6962118 2
-10.858799 5.4868469 6.1951981 4
-10.845589 5.425251 6.1844201 31
-10.917358 5.5080719 6.1252408 5
-10.77293 5.358181 6.1946278 3
-10.786312 5.3932457 6.2970929 2
-10.763081 5.4075165 5.9647651 2
-10.83276 5.446991 4.6219049 2
-10.954144 5.5271912 4.948657 3
-10.815445 5.5120277 6.1705937 6
-10.989201 5.653183 6.1971774 3
-10.987644 5.6460915 6.227221 16
-10.82679 5.4294968 5.2268901 2
-11.010273 5.7456017 5.8270745 2
-10.925766 5.6098251 6.1162238 17
-10.89307 5.6426811 6.052 5
-10.891954 5.5980911 5.9151521 15
-10.973621 5.6018906 6.1191988 7
-10.920494 5.6158867 6.2664728 5
-10.752743 5.4345627 6.0120573 12
-10.864517 5.5353546 6.0564804 12
-10.995106 5.5993004 5.9804935 13
-10.789913 5.4706612 6.2021317 21
-10.772585 5.3885384 6.0453959 9
-10.778446 5.3939133 6.2720375 23
-10.748327 5.4173889 4.6153545 3
-10.989491 5.6114464 6.1969113 5
-10.80409 5.4545364 6.0178967 6
-10.950324 5.600975 6.0641484 10
-10.647934 5.4063797 4.7456102 3
-10.876053 5.5439301 4.5958223 3
-10.868791 5.5654907 5.1550636 3
-10.994063 5.3190689 5.0827303 11
-10.965044 5.580822 4.846314 2.5
-10.867229 5.5756416 5.1189079 2
-10.933807 5.5502167 6.2263722 9
-10.843612 5.4920425 4.8543735 2
-10.848293 5.4323769 6.0340037 8
-10.818104 5.4880791 6.0711756 16
-10.836884 5.4331017 5.7042694 3.5
-10.767609 5.4878235 4.6994395 3
-10.710896 5.4896355 5.7559824 2
-10.927629 5.5740166 4.7128692 2
-10.881693 5.5539589 5.7683034 3
-10.98259 5.5650024 4.5095716 4
-10.752315 5.5683861 5.5194383 1
-10.933257 5.4095154 5.2112441 7
-10.822285 5.4935837 5.3616157 2
-10.861335 5.4562378 5.0607395 3
-10.734517 5.4359169 6.0981464 10
-10.828689 5.4855003 5.4528599 3
-10.928454 5.5457878 4.944252 2
-10.960489 5.5515785 6.02178 3
-11.012308 5.5533333 6.0278077 36
-10.964372 5.5399742 5.1145463 2
-10.864745 5.4954491 6.1056352 16
-10.808847 5.4765625 6.0866127 6
-10.723684 5.4085007 4.8865047 3
-10.95303 5.5367279 5.0318851 3
-10.850366 5.5109444 6.0839672 8
-11.006245 5.6361351 6.1425838 2
-10.882905 5.5367279 5.3585291 3
-10.94276 5.5465317 5.6324992 3
-10.681978 5.3847961 6.094851 18
-10.987062 5.3653984 4.9891796 131
-10.840428 5.4825363 4.5380712 2
-10.961128 5.2880745 5.0216413 13
-10.961992 5.3081551 4.8952909 44
-10.998724 5.4241905 5.6148796 3
-10.800883 5.461483 5.0990839 3
-10.665236 5.5005455 6.158709 2
-10.852174 5.4700737 6.2044697 11
-10.982297 5.559166 5.488029 2
-11.007407 5.5790405 6.0601134 4
-10.739731 5.472168 4.7922764 2
-10.907067 5.4658318 4.9702611 3.5
-10.765266 5.4792442 5.318882 4
-10.822184 5.4821014 4.9879379 2
-10.815428 5.4724998 6.0460129 15
-10.837816 5.5329819 4.9819021 3
-10.81722 5.5088615 6.0393515 5
-10.962759 5.5330162 5.7273965 2
-10.913184 5.4994316 6.0758095 16
-10.847181 5.509243 6.0804424 4
-10.80849 5.4858894 6.1503906 8
-10.92787 5.5204353 6.0502529 19
-10.911613 5.4791908 6.0069194 15
-10.882213 5.4761505 6.0077863 8
-10.937963 5.5190392 6.051374 12
-10.86227 5.4473648 5.0096569 2
-10.839432 5.4422722 6.0692525 27
-10.877542 5.4953766 4.5857658 4
-10.842913 5.540329 5.6483421 3
-10.874913 5.4751129 4.9842024 3
-10.849661 5.4770546 6.0484214 11
-10.948954 5.5008698 5.5161977 4
-10.961458 5.5278397 4.94835 2
-10.900949 5.4752007 6.007091 21
-10.894253 5.4769402 6.2776332 34
-10.85851 5.5594139 5.1981869 1
-10.820203 5.5499992 5.3712869 2
-10.875061 5.5040016 4.5744562 4
-10.806255 5.478035 5.6199489 1
-10.842903 5.4522858 6.2370896 17
-10.993433 5.6132927 6.2925296 2
-10.69671 5.5843163 5.4243412 1.5
-10.856271 5.4872208 6.0709138 6
-10.85863 5.4979858 5.1579123 3
-10.787565 5.5007248 6.2155485 6
-10.852543 5.4774055 4.7142477 5
-10.814095 5.4920959 4.5702906 2
-10.903528 5.5360184 5.6653509 3
-10.994705 5.5276299 5.6932878 4
-10.897038 5.5065613 5.0761809 4
-10.778457 5.4936485 6.1209102 4
-10.94291 5.5756874 6.178576 2
-10.917234 5.5428276 5.7803178 2
-10.928993 5.5130463 6.0829124 38
-10.794814 5.5294647 5.7386322 1
-10.955465 5.5593185 5.3047619 1
-10.877579 5.5392036 5.7898517 2
-10.82398 5.5294151 5.882544 2
-10.900418 5.5493431 5.0431328 3
-10.905849 5.4925919 6.0308952 8
-10.846272 5.486721 4.6744871 2
-10.802158 5.4939194 6.0630875 2
-10.849674 5.5057602 4.7544298 2
-10.872923 5.5160751 5.973258 8
-10.841167 5.4732742 4.6502342 2
-10.797762 5.4463463 6.0904202 24
-10.853967 5.4717369 4.5171552 3
-10.930541 5.5490189 5.6222477 2
-10.873745 5.4927177 4.7126222 5
-10.81932 5.5112267 4.9645386 2
-10.972098 5.510273 4.6010952 3
-10.887298 5.5086136 5.2124367 2
-10.974092 5.5134773 6.3141546 5
-10.879354 5.5023003 6.0762601 12
-10.935692 5.5305099 5.129385 2.5
-10.868249 5.5239372 6.1860065 2
-10.878294 5.542717 4.9866834 4
-10.855113 5.5083199 6.0332155 45
-10.957403 5.5634308 5.2946706 2
-10.74177 5.4636383 4.7387481 2
-10.75806 5.4290123 5.9932599 20
-10.969496 5.5442123 6.0442162 51
-10.907343 5.5842133 5.7866654 3
-10.800849 5.4782486 5.3740168 2
-10.775944 5.4380074 6.1102467 8
-10.878013 5.521553 5.2601256 2
-10.926285 5.5246391 4.7646151 3
-10.826454 5.5067139 5.0421443 4
-10.823985 5.4988289 5.1937108 2
-10.814902 5.4716415 5.7115951 4
-10.834215 5.4676514 5.1846871 3
-10.897972 5.5256577 6.2984147 4
-10.921144 5.6105537 5.432291 2
-10.961556 5.5324326 4.8341384 3
-11.017275 5.5779076 5.9710722 2
-10.942568 5.5511818 4.739604 3
-10.957767 5.5093193 6.1514597 42
-10.882925 5.5051537 5.1628356 4
-10.891461 5.4723969 6.2111912 48
-10.822203 5.4897957 5.1798391 3
-10.762112 5.4886551 6.2255535 9.5
-10.704379 5.4741402 5.0954585 3
-10.808884 5.5207863 6.1677446 18.5
-10.681149 5.4525452 5.0365567 1
-10.677458 5.4630013 6.0915656 1
-10.815425 5.5165482 5.0913129 2
-10.756499 5.5502167 6.1480355 2
-10.863253 5.5698547 5.2812939 2
-10.895889 5.524334 4.5321183 3
-10.943685 5.5383072 5.1327868 4
-10.846292 5.5540733 6.1820488 4
-11.013869 5.6282692 6.2345333 3
-10.953118 5.589798 5.9227672 2
-10.894785 5.4905548 6.1394491 42
-10.946196 5.5577393 5.3650832 3
-10.955982 5.5669594 4.847302 3
-11.014987 5.611351 5.9466257 3
-10.970178 5.5502472 5.4792752 2
-10.909885 5.5342255 5.7422018 3
-10.958321 5.5106239 6.0704236 36
-10.95435 5.5699234 5.3262186 2
-10.902478 5.5113258 6.0836015 30
-10.83777 5.5478287 5.2624283 2
-10.949196 5.5176277 4.8515763 2
-10.888007 5.5417976 5.9024496 5
-10.849809 5.5325851 4.6736364 2
-10.860518 5.5316582 6.1699944 13.5
-10.880117 5.57621 6.2667837 2
-10.911135 5.5537415 5.2892761 3
-10.878263 5.4882927 5.0953722 3
-10.875029 5.5040245 6.1465988 53
-10.827465 5.5276718 4.8618641 3
-10.797142 5.5457993 5.9137287 3
-10.92072 5.5645981 5.910563 2
-10.91034 5.5357933 5.029623 4
-10.877755 5.4973412 6.0767503 30
-10.965429 5.5329857 5.0452156 1
-10.94232 5.5087929 6.093461 34
-10.91897 5.5582237 4.6520329 4
-10.969768 5.6197929 5.7242041 3
-10.833918 5.5254745 5.1349511 2
-10.811193 5.564064 6.197412 3
-10.911245 5.5323677 5.9782763 6
-10.89557 5.5782585 4.6140528 2
-10.966969 5.5626564 5.6879997 2
-10.852232 5.4969482 4.5179405 3
-10.892965 5.5652428 5.8025465 3
-10.93917 5.5331116 5.2766724 2
-10.944542 5.519619 4.9941368 3
-10.859303 5.5187302 6.0565748 13
-10.957188 5.5572395 5.0182257 3
-10.877613 5.5164375 6.0775986 11
-10.926843 5.5536118 5.0889797 3
-10.864732 5.5110321 6.149281 24
-10.862093 5.5179024 5.3602352 3
-10.792803 5.4911652 4.5466108 3
-10.685598 5.5507317 5.5933981 1.5
-10.946099 5.5481758 5.7322526 2
-10.879225 5.5256462 5.7781606 2
-10.928617 5.5356827 5.4913297 2
-10.868311 5.542347 5.2469187 3
-10.838262 5.5039177 4.5941687 2
-10.90598 5.5069656 4.7353315 4
-10.891636 5.5627365 5.7972822 2
-10.973474 5.5996704 5.5435567 1
-10.865594 5.5208817 6.0090013 7
-10.831724 5.5757713 5.4500937 2
-10.872963 5.5340538 5.489975 2
-10.972495 5.5421944 6.171093 3.5
-10.850384 5.615963 5.7794418 3
-10.95479 5.5859261 5.8152409 6
-10.916859 5.5210342 5.3901186 2
-10.81234 5.4774132 4.6224437 3
-10.832723 5.5108833 4.7375603 2
-10.739001 5.5036697 6.1825213 2
-10.778109 5.4355774 6.3133583 22
-10.913181 5.5016632 6.0887451 25
-10.90907 5.5198021 5.3576207 2
-10.735456 5.4609871 6.0694404 2
-11.001167 5.3957062 5.5393171 3
-10.694549 5.4501305 5.3528309 2
-10.655512 5.3862381 4.9845748 5
-10.944566 5.3435135 5.02737 255
-10.906048 5.3426018 5.2634497 255
-10.829611 5.3210793 4.8643899 130
-10.930572 5.4177628 4.8469596 242.5
-10.664494 5.5433884 6.2526197 2
-10.81312 5.5414047 5.6743999 3
-10.822362 5.4915543 5.070158 3
-10.792861 5.4743767 6.1214533 37
-10.841395 5.7043571 5.6060314 2
-10.736667 5.4324265 5.2418089 1
-10.894057 5.4663925 5.1440759 3
-10.73034 5.4512177 4.8847737 2
-10.837505 5.4699478 6.0065269 32
-10.745256 5.7020912 5.6927519 2
-10.926155 5.543026 5.6025467 2.5
-10.782786 5.5250053 5.6721697 2.5
-10.835416 5.5361862 5.6530581 2.5
-10.970366 5.5274277 5.5074229 3
-10.973063 5.5301247 5.9577665 24
-10.959154 5.5618019 5.6860447 3
-10.927944 5.5395164 6.1054926 2
-10.720184 5.4914513 6.1498756 3
-10.898954 5.5208511 6.186306 3
-10.834103 5.5041275 5.0291538 4
-10.820431 5.4692535 6.0920982 49
-10.953559 5.5486031 5.1238475 1
-10.853627 5.4964676 6.1662765 4.5
-10.843624 5.4432793 4.9266863 2
-10.844608 5.4318619 4.7255306 3
-10.799182 5.4716225 5.7941604 3
-10.957834 5.5985909 5.8401966 3
-10.988564 5.5493202 5.164485 3
-10.903623 5.6024818 6.2351227 3
-10.963146 5.5511131 6.2988143 2
-10.901218 5.4859734 4.7262278 3
-10.844104 5.5045052 5.1697946 2
-10.924076 5.5389175 6.0330267 6
-10.807062 5.5085526 5.9123573 3
-10.898013 5.3982887 5.0030885 3
-10.903698 5.4323311 5.7330785 2
-10.791445 5.4869995 6.025929 9
-10.765378 5.5105286 6.103476 4
-10.732378 5.5240364 5.2701468 1
-10.993647 5.5695152 5.3165212 2.5
-10.996969 5.4036026 5.5376463 255
-10.830265 5.5570984 6.2821078 2
-11.013283 5.4926491 6.2863421 2
-10.905222 5.4878464 4.7785845 2
-10.944323 5.4514656 5.2223029 3
-10.668566 5.4794846 6.1835575 3
-10.745435 5.5393105 4.593636 2
-10.746866 5.4245148 4.56425 255
-10.83653 5.5695686 4.8953714 172.33333
-10.866146 5.5712852 4.8652067 3
-10.827874 5.5294266 5.8565836 29
-10.862852 5.4810905 4.5785923 11
-10.736538 5.5120583 4.7407794 4
-10.906975 5.6313515 5.7777281 3
-10.777082 5.4170494 4.5494518 255
-10.677788 5.4669228 5.5290751 1
-10.750679 5.4412117 4.6697798 5
-10.867434 5.5202866 5.3393784 2
-10.670422 5.5670395 4.5810056 3
-10.734782 5.5299759 6.2133303 6.5
-10.85286 5.3454781 6.2372212 24
-10.734797 5.534317 6.1953321 4
-10.73805 5.568264 5.2311072 2
-10.793297 5.538929 6.1100254 4
-10.75973 5.6337166 5.6769848 1
-10.665655 5.4946632 4.5775332 2.5
-10.821928 5.4491501 6.292232 15
-10.669737 5.5543556 5.7634444 2
-10.74011 5.5830498 5.2338586 2
-10.763281 5.5636444 6.0541234 6
-10.748304 5.6126213 4.9752197 2
-10.875276 5.5537834 5.8896208 2
-10.757733 5.5284729 5.139811 3
-10.93698 5.5892258 5.1746626 1
-10.762848 5.4844818 4.6934829 3
-10.924637 5.5859184 5.5506191 1
-10.779352 5.5421524 4.6014032 4
-10.679272 5.6318092 5.3832579 1
-10.793119 5.5501022 5.4031792 2
-10.745735 5.5931816 6.2026949 7
-10.741051 5.6135025 5.64606 1.5
-10.764185 5.5496559 4.7355599 1
-10.943731 5.669136 5.5852785 2
-10.707551 5.6154366 6.0356841 5
-10.953236 5.4657097 6.2273164 6
-10.795431 5.5528831 4.5793552 1
-10.746977 5.6251411 5.3651085 1
-10.73361 5.6140747 6.1544576 5
-10.706195 5.5621338 4.5415163 1
-10.762253 5.5569229 4.9125018 2
-10.87383 5.44244 4.6128016 1.5
-10.894752 5.4579544 5.4213672 3
-10.844365 5.484005 6.2136011 7
-10.877622 5.5405922 4.5373158 1.5
-10.925479 5.5538979 5.3453689 2
-10.837125 5.5975952 6.1166229 5.5
-10.820298 5.5122681 4.9525433 1
-10.74837 5.5643692 5.7433739 3
-10.977838 5.5713234 5.8178611 2
-10.779606 5.4966049 4.8272161 3
-10.700079 5.5740967 5.6117597 1
-10.978781 5.5359802 5.7112327 2.333333
-10.900973 5.4038811 4.6999722 3
-10.967923 5.4511414 5.5324297 1.666667
-10.776135 5.6235504 5.2528563 1
-10.700248 5.6514931 6.0272598 6.5
-10.722374 5.556263 4.9234476 1
-10.957701 5.6904182 4.9802446 3
-10.921686 5.6919403 5.7689896 2
-10.697426 5.6518002 4.6207361 0
-10.781311 5.5290623 4.6414256 3
-10.889709 5.6098385 5.4555955 2.5
-10.788128 5.6046085 6.2247405 3
-10.896002 5.5216999 6.2499719 1
-10.877195 5.3832436 5.0667634 1
-10.724076 5.5843906 4.7054777 2
-10.849957 5.5313396 4.7334795 1
-10.736762 5.6204014 5.4947772 2
-10.961951 5.5373497 5.698966 3.5
-10.831482 5.5001621 5.9802041 3
-10.925606 5.3602619 4.5064526 2
-10.915094 5.4240437 5.2950158 1
-10.978996 5.3590374 6.1115403 5
-10.887352 5.463026 6.0843911 1
-10.838507 5.5082951 6.2967849 3
-10.94552 5.4314289 6.3217201 3
-10.893831 5.575664 4.6196203 0
-10.829073 5.4877915 4.7327657 1.333333
-10.827067 5.5371051 4.6157627 0
-10.780519 5.4168501 4.8251629 1.166667
-10.825315 5.5226612 4.5854931 1.35
-10.737124 5.4509211 4.6079001 1
-10.881207 5.5387163 4.992383 1.875
-10.762005 5.4553699 4.9187613 1
-10.663212 5.4580569 5.0700817 0.25
-10.935996 5.5045815 5.2905674 3.571429
-10.672352 5.463635 5.4011626 0
-10.867198 5.5884662 4.6206503 1.333333
-10.788475 5.486763 4.6366043 2.5
-10.921629 5.5992575 5.0335913 1.541667
-10.895218 5.4981599 5.0266109 4
-10.947152 5.5505009 5.3479319 1.2
-10.89093 5.5030398 5.2506795 4
-10.721243 5.5036292 5.3268881 0
-10.844444 5.475769 4.7391448 0
-10.803967 5.3952417 4.8583374 0
-10.803388 5.4108505 5.318069 0.29166701
-10.835073 5.5253501 4.582365 8.083333
-10.878924 5.5744262 5.019228 0.8125
-10.704512 5.4904652 5.1977892 0
-10.807807 5.5490937 5.5130997 0.5
-10.730002 5.5798564 5.6733456 0
-10.86911 5.5303745 4.8903589 0.89999998
-10.807564 5.4525084 5.026104 1
-10.837723 5.4767804 5.2515082 1.333333
-10.856552 5.5233116 5.6123486 1.380952
-10.895778 5.4820857 5.9605465 2.4000001
-10.823975 5.4108553 4.6715374 0.57142901
-10.929382 5.406146 4.9825554 0.783333
-10.74408 5.3456478 5.1677675 0.5
-11.007878 5.4545116 5.5615683 2.5999999
-10.815346 5.4135571 5.5155525 1.083333
-10.854096 5.5955496 5.5176773 0
-10.882792 5.6525602 5.6397705 0
-10.969634 5.7020693 5.015656 1.333333
-10.809916 5.6278424 4.9491229 1.75
-10.730307 5.5548239 4.9745412 1.166667
-10.825059 5.6384482 5.3161912 0.60000002
-10.686335 5.5620475 5.366652 0
-10.903483 5.6502566 5.6647172 0.875
-10.826254 5.5682912 5.6905117 2.666667
-10.669648 5.5783725 5.7601662 0.25
-10.807442 5.7135911 6.1061778 1
-10.781665 5.6525636 6.2458119 1.875
-10.713282 5.588129 6.2704649 2.5
-10.887013 5.5727196 4.7381711 0.69999999
-10.806398 5.4914942 4.8839564 0
-10.855411 5.5125971 5.2449956 0
-10.886003 5.5744553 5.6212153 0
-10.888808 5.5547771 6.0113301 0.26666701
-10.861412 5.4426651 4.5285397 3
-10.950603 5.4360085 5.6189313 3
-10.913162 5.3594093 4.6711445 87
-10.811874 5.3929977 5.7844114 3
-10.857876 5.43013 5.2777929 2
-10.951561 5.4981956 5.6513677 3
-10.83633 5.5177841 5.9441977 7
-10.8778 5.5198975 4.7339773 2
-10.838387 5.4329758 4.8727379 2
-10.791225 5.4601097 6.110961 23
-11.002712 5.6396599 5.4637518 3
-10.940655 5.5516853 5.640419 3
-10.858624 5.5397415 4.6661625 2
-10.778709 5.526516 5.6572256 3
-10.899738 5.5418587 4.5419965 3
-10.989067 5.5958672 6.1505494 12
-10.998051 5.6318436 5.7404613 3
-10.957336 5.5138931 4.9198685 3
-10.959049 5.6125755 6.2161388 3
-10.940491 5.5775032 5.9510236 11
-10.825832 5.4873047 4.9867334 3
-10.769459 5.4324226 6.2111464 35
-10.966057 5.4133949 5.5892081 3
-10.983196 5.5561829 4.6400385 2
-10.994755 5.6501923 5.941678 3
-10.993114 5.6477585 5.8400445 12
-10.9748 5.5760612 6.1708398 17
-10.867332 5.5408096 6.0221801 12
-10.914814 5.5064125 6.1030264 11
-10.94117 5.561676 6.0427985 18
-10.836258 5.4572296 6.1865158 14
-10.943401 5.5478363 6.1183572 8
-10.952663 5.5895844 6.0745468 18
-10.874111 5.5121574 6.0695205 14
-10.929535 5.5955887 6.2113237 33
-10.95306 5.3554535 5.5338011 3
-10.940577 5.6147232 5.6977611 2
-10.904497 5.5862579 5.9797797 12
-10.873405 5.5187988 6.0951357 17
-10.760857 5.4625511 5.0256119 2
-10.916805 5.5682297 5.1180372 2
-10.851688 5.4656563 4.8205853 2
-10.810747 5.4783745 4.6253309 3
-10.829504 5.5251884 5.9051118 12
-10.863855 5.4892006 5.2501059 2
-10.945125 5.5002708 4.9082618 2
-10.949893 5.5695229 4.8520079 3
-10.76516 5.4685135 5.1953726 1
-10.950696 5.4125214 4.751215 255
-10.824604 5.5018997 6.1692095 7
-10.943548 5.5780334 6.0256805 18
-10.791327 5.5426674 5.015656 2
-10.914854 5.5570335 4.9297342 3
-10.88648 5.5029984 5.2871118 2
-10.863722 5.5080643 6.1158524 8
-10.979399 5.6312561 5.2217093 5
-10.813929 5.4501801 5.1159682 3
-10.69285 5.5256348 6.1114845 1
-10.865643 5.4921455 6.1009197 2
-10.958061 5.5122261 4.8834805 128.5
-10.867481 5.6354752 5.4581647 3
-10.666317 5.4836693 4.9168906 3
-10.97688 5.54879 5.4006524 3
-10.951976 5.6348419 5.1816573 2
-10.912178 5.5139122 4.9472365 3
-10.760339 5.6036606 4.6412878 1
-10.829214 5.5387115 6.0871868 4
-10.868995 5.571991 5.1491957 1.5
-10.671387 5.5871925 6.1259513 1
-10.748442 5.5684395 5.8568277 3
-10.891312 5.5337944 4.5624332 2
-10.793683 5.5219345 6.0469747 7
-10.80578 5.6399841 5.3729677 2.5
-10.971512 5.5885048 4.8422828 2.5
-10.877434 5.5665817 4.9830112 1.5
-10.835114 5.6075897 5.8808618 3
-10.701629 5.556057 4.9941983 1.5
-10.675801 5.5302963 5.8832254 3
-10.765114 5.5205956 5.3385906 1
-10.664864 5.5633125 6.2345448 6
-10.914707 5.5783653 5.8712068 5
-10.69476 5.5804253 5.1894155 2
-10.728007 5.5796661 6.0622253 21
-10.911219 5.5512657 5.125814 3
-10.901354 5.6047554 4.973949 3.5
-10.751316 5.5987854 5.8334718 4
-10.67461 5.5019302 4.5237408 3
-10.660746 5.5110626 6.2446203 15
-10.655128 5.5946198 4.824841 1
-10.793345 5.5307579 4.8240809 1
-10.896766 5.6113205 5.6869998 2.5
-10.703868 5.4736671 6.0117369 24
-10.753218 5.5616341 5.1995425 3
-10.727476 5.5637245 6.0384488 3
-10.672198 5.5443802 4.910923 3
-10.78892 5.6091461 5.7567677 2.5
-10.703405 5.5583038 4.7801208 2
-10.917116 5.7082405 4.8004522 2
-10.908726 5.6833992 5.6319389 3
-10.930874 5.5666351 4.8128591 1
-10.93651 5.5612564 5.634798 1.666667
-10.785076 5.5365295 4.6122932 2
-10.856123 5.5228271 6.2525501 27
-10.774832 5.5176468 4.5354753 3
-10.810369 5.5458527 5.3470716 1
-10.693657 5.5852776 6.1628022 8
-10.745983 5.6068459 5.2196364 1
-10.683767 5.6391373 6.0309205 4
-10.924294 5.5864143 5.613153 2.5
-10.799507 5.5020981 5.232923 1
-10.941154 5.4701271 5.237339 1
-10.803356 5.5283585 6.0385871 2
-10.733568 5.5220528 4.9009581 2
-10.945463 5.664753 5.719389 2
-10.727687 5.4893417 4.716712 3
-10.944882 5.618084 5.5264626 2
-10.723853 5.4702187 6.292213 12
-10.953344 5.6581345 4.8205609 2
-10.769053 5.6213531 5.5957413 1
-10.853789 5.4919205 4.6881938 3
-10.876241 5.5377235 5.4820924 2
-10.875007 5.5530357 6.274332 3
-10.810618 5.5121689 4.5642228 3
-10.800145 5.5474777 6.136436 10
-10.71923 5.6946716 6.147203 2
-10.769804 5.558548 4.5312562 3
-10.732744 5.5768089 5.3093767 3
-10.924269 5.6441345 5.3346658 1
-10.756378 5.5801773 6.0945845 18
-10.766497 5.6108932 4.9789104 1.5
-10.739929 5.6497383 5.7562056 1.5
-10.785067 5.4734306 5.1427417 4
-10.731359 5.5148659 5.915154 2
-10.713135 5.5418587 4.6943083 2
-10.774025 5.6272659 5.4856296 1.5
-10.754489 5.6712608 4.8232751 1.5
-10.720355 5.6302872 5.5930834 3
-10.811874 5.4649944 5.6143236 1
-10.957361 5.4429951 5.6375251 1
-10.748842 5.5730133 4.9053864 1
-10.887493 5.6969147 5.7112379 1
-10.800985 5.489212 4.9721818 1
-10.728453 5.5074615 5.7318387 3
-10.997572 5.5484924 5.7755966 2
-10.977556 5.3782425 6.0613465 1.5
-10.731303 5.5014877 5.2250891 3
-10.953284 5.4526024 5.7756119 1.666667
-10.847082 5.4915066 4.7998104 1.5
-10.786295 5.5431919 5.5643849 2
-10.766661 5.5247459 5.1208882 1.5
-10.729631 5.5459747 5.8934512 3
-10.807999 5.5379715 4.5613012 2
-10.675625 5.6060104 5.3159409 1
-10.749844 5.6127205 6.0985098 4
-10.75268 5.5265999 5.2747502 1
-10.858952 5.554491 5.9553237 2
-10.911474 5.5004177 5.4722843 1
-10.997313 5.4887142 6.2567291 8
-10.869115 5.5661316 5.098506 2
-10.714025 5.5940094 5.8685513 4
-10.646464 5.5195713 4.741642 1.5
-10.676839 5.5060749 5.5223594 2
-10.736442 5.5557289 5.0880818 1.5
-10.699668 5.5799217 5.862886 4
-10.744506 5.5644226 5.2143674 3
-10.797061 5.5518227 5.9820147 3
-10.782644 5.6693497 5.0029368 1
-10.870003 5.5583153 4.9848962 2
-10.828851 5.5198116 5.7047348 1.5
-10.753826 5.5508232 4.9116168 2
-10.770029 5.5928535 5.6842508 2
-10.807844 5.5679359 5.5327048 3
-10.688027 5.5575962 4.9821424 2
-10.963008 5.597826 4.9698944 2
-10.983729 5.6226215 5.7377267 1.666667
-10.705657 5.5454788 4.9938898 4
-10.957995 5.55299 4.9856272 1.5
-10.953382 5.5977249 5.7459049 2
-10.678708 5.6330338 4.6426129 1.5
-11.003413 5.7174263 5.3802657 3
-10.752002 5.6003952 5.3746376 2
-10.656205 5.6639061 6.1504741 2
-10.662678 5.5738869 4.584959 4
-10.726143 5.5425148 6.0668263 23
-10.643211 5.5763359 4.7290001 3
-10.659349 5.5858688 5.4670706 3
-10.949314 5.6491356 5.4603744 1.5
-10.733053 5.564106 4.9810514 2
-10.715515 5.5801888 5.7096882 2
-10.973595 5.6003609 5.705863 3
-10.949421 5.5009689 4.7498975 2
-10.847111 5.6435795 5.4954638 1
-10.911627 5.5781651 6.2020245 6
-10.93493 5.5605583 4.9239774 2
-10.853364 5.5480156 5.6232915 1.5
-10.954207 5.4541168 6.3141851 6
-10.886851 5.5331402 4.697546 3
-10.859878 5.6060066 5.4000077 1
-10.908647 5.5769997 6.092917 5
-11.004884 5.5001011 6.0829058 37
-10.667838 5.5092583 4.7000408 1
-10.684762 5.5152512 6.0825639 3
-10.799924 5.5774479 4.9408088 4
-10.747354 5.7014961 4.9602184 0
-10.831956 5.6103134 5.6309824 1.5
-10.814427 5.5802326 4.7636256 3
-10.794385 5.670536 5.4507904 1
-10.858138 5.5615158 5.4364438 3
-10.80273 5.6100063 6.113987 3
-10.904729 5.5463562 6.1084852 12
-10.751004 5.584898 4.766253 1
-10.995645 5.6197872 5.4524927 1
-10.696799 5.6774254 4.63627 1
-10.755071 5.5657864 4.6243029 3
-10.709466 5.6404533 5.2928576 2
-10.699391 5.6718006 5.9612923 1.5
-10.780012 5.6127453 4.9149928 2
-10.93421 5.5933132 5.5818806 2
-10.886089 5.6081886 6.240551 0
-10.762635 5.5425434 4.689775 1.5
-10.706491 5.661293 5.3563838 1
-10.773162 5.570467 5.9971499 2
-10.653054 5.643528 6.1133804 1
-10.829055 5.5009842 6.0978875 18
-10.791104 5.5963116 4.525136 1.5
-10.926423 5.4937344 4.5165792 0
-10.867164 5.5384712 5.1585541 2
-10.784265 5.6412792 5.8115859 2
-10.721201 5.7069073 4.8585382 0
-10.751022 5.5732212 4.8441133 4
-10.737221 5.6119976 5.4820776 1.5
-10.708185 5.6343269 6.1152153 6
-10.810078 5.5794983 6.1165304 8
-10.898512 5.5098038 6.1144009 13
-10.77011 5.4973717 4.5510707 1
-10.972257 5.6446896 5.8451176 1
-10.713364 5.5103493 4.6207891 2
-10.742058 5.4899483 5.2397099 2
-10.815905 5.5172691 5.8741012 2
-10.878998 5.5890675 4.9240446 2
-10.721241 5.6608448 5.5464907 1
-10.87081 5.6604385 6.1745644 4
-10.747776 5.5933247 5.0794868 2
-10.750986 5.6159248 5.6990967 2
-10.838082 5.5961094 4.8931403 2
-10.890439 5.5755062 5.4920969 2
-10.885739 5.5713348 6.0996857 3
-10.78301 5.558836 4.6042333 1.333333
-10.876161 5.5425072 5.2026982 1.666667
-10.655692 5.5807209 5.8102126 1.5
-10.910733 5.5412788 5.8081307 1.5
-10.645653 5.5367413 5.3224435 1
-10.677042 5.6469917 5.062614 1
-10.807878 5.5640221 5.0504508 2
-11.010323 5.6024761 5.6560798 2
-10.803179 5.5348396 5.6333313 1
-10.767097 5.5504017 6.2271032 10
-10.720997 5.6729031 4.900598 0
-10.942577 5.6036243 4.8951931 3
-10.881424 5.6033897 5.4715071 1.666667
-10.890377 5.528614 6.0388746 5
-10.643053 5.5681381 4.6374159 0.5
-10.649593 5.5557709 5.204895 1.5
-10.973637 5.5188217 5.2100596 2
-10.66161 5.5483074 5.7774477 3
-11.011507 5.535141 5.7926197 4
-10.822741 5.5595894 4.6307411 2
-10.8529 5.5635948 5.1958685 1
-10.782787 5.6096973 5.7700663 3
-10.820847 5.564332 4.9391665 1
-10.963207 5.6318064 5.5199056 1
-10.669575 5.6989241 6.0749745 4
-10.913784 5.5201502 6.0595593 0
-10.84449 5.6235456 4.9932141 1
-10.782848 5.61168 5.5454202 1.333333
-10.717808 5.6626921 6.1148529 6
-10.822618 5.5602655 6.098536 29
-10.706257 5.5143366 5.0355611 1
-10.979385 5.5682364 5.0534396 1.5
-10.869158 5.5551882 5.6061645 1.5
-10.738305 5.5559092 4.5188465 0
-10.840194 5.5924482 5.0860586 1
-10.845056 5.6676188 5.6760416 1
-10.669162 5.5803137 6.2159519 14.666667
-10.911684 5.66502 5.0052743 2
-10.802238 5.5684471 4.9799066 2.5
-10.755806 5.6250935 5.5444312 1.666667
-10.709972 5.5574398 6.0793867 1
-10.687897 5.6056519 4.950016 2
-10.706717 5.6004429 5.4922047 2
-10.685343 5.6192646 6.048346 3
-10.813936 5.5308018 4.878737 2
-10.808111 5.5373173 5.4143338 2
-10.752771 5.6204529 5.9742975 2
-10.825477 5.5720367 4.7869153 1.5
-10.684369 5.62463 5.3276062 2
-10.747333 5.5604725 5.3120012 1
-10.687236 5.6796227 5.878602 1
-10.78792 5.5568352 4.6721492 1.5
-10.788244 5.562994 5.1984091 1
-10.676292 5.6551514 5.7444425 2
-10.919916 5.5747137 4.8982301 1.5
-10.931738 5.6056795 5.4220686 1.5
-10.805994 5.7008333 5.9565082 1
-10.844934 5.6193342 5.9400015 2
-10.83712 5.5659504 4.651052 2
-10.871037 5.5576096 5.1623406 2
-10.777981 5.6906338 6.2192764 2
-10.72562 5.5594425 4.9852691 3
-10.711086 5.5752316 5.4933114 2
-10.680313 5.6204109 6.0096073 2
-10.808534 5.5929909 5.1052966 1.75
-10.863118 5.628355 5.6257982 1.5
-10.701093 5.5543804 6.1070194 20
-10.751602 5.5430689 4.6922846 1.333333
-10.732075 5.5591326 5.1928377 2.5
-10.966518 5.5687189 5.7096224 1.666667
-10.802839 5.5390062 6.2040672 21
-10.780951 5.5995302 4.5778713 1.333333
-10.91118 5.4920425 4.5460691 1
-10.893503 5.5469055 5.0610747 1.333333
-10.824152 5.5692759 5.567616 1.333333
-10.76156 5.6357317 6.0902886 1.5
-10.843351 5.5432053 6.06284 3
-10.741666 5.5949669 4.8657947 2
-10.775586 5.5683327 5.3445773 1.666667
-10.790229 5.5770931 5.838881 1.333333
-10.833149 5.6201582 4.7729192 1.666667
-10.828056 5.6495905 5.2554989 1.666667
-10.832777 5.6248627 5.7288203 2
-10.785833 5.7178402 6.2303286 2
-10.884384 5.5885735 6.2100334 23.5
-10.771442 5.6809769 4.628397 2
-10.935646 5.5524616 4.6212044 0
-10.79583 5.6473408 5.0922251 2.5
-10.771955 5.6763048 5.5708423 1.5
-10.863625 5.5945826 5.5658174 1
-10.730052 5.6224051 4.9101543 1
-10.701739 5.6621914 5.3830233 2
-10.862592 5.7228603 5.3554058 1.333333
-10.676682 5.534719 6.0667105 1
-10.753561 5.6192169 4.6493349 1
-10.759661 5.5971127 5.0629539 0.5
-10.760891 5.6174717 5.490911 1.5
-10.77281 5.643239 5.9305496 1.25
-10.747573 5.7379999 4.5192924 1
-10.744378 5.7069159 4.9203048 2
-10.644685 5.7130194 5.518424 0.75
-10.765162 5.687706 5.7430358 2
-10.771926 5.7387915 6.1773639 2
-10.871087 5.5939989 6.1668386 45
-10.70996 5.4928551 4.6516771 1.666667
-10.652432 5.6124973 5.0701184 1
-10.710357 5.4874001 5.052474 1.5
-10.651092 5.6905537 5.4921055 0
-11.00496 5.5794458 5.5269904 3
-10.644954 5.5667171 5.463521 1.5
-10.71811 5.4905424 5.4589343 1
-10.650428 5.5596056 5.8696094 3
-10.700398 5.50945 5.8671589 1
-10.750268 5.4924612 6.2852864 7
-10.781086 5.6313124 4.7925673 1.5
-10.764658 5.6528168 5.1918335 2
-10.742983 5.640111 5.1855555 2
-10.65847 5.7338066 5.5924282 2
-10.866234 5.6301527 5.6028633 3
-10.779865 5.6322861 5.9928484 1
-10.82711 5.7081146 4.8734789 2
-10.827978 5.7283087 5.2669997 1.5
-10.806299 5.715723 5.2604928 2
-10.779423 5.7495947 5.6530533 1.333333
-10.656235 5.6590443 4.6781664 1.5
-10.755939 5.5693989 4.6886425 1
-10.673588 5.6395245 5.0638041 3
-10.772055 5.5860863 5.0791888 0.5
-10.667425 5.5379157 4.6197629 1
-10.75408 5.6525559 4.7786331 1
-10.735935 5.606667 4.7694092 1
