# .PCD v0.7 - Point Cloud Data file format
VERSION 0.7
FIELDS x y z intensity
SIZE 4 4 4 4
TYPE F F F F
COUNT 1 1 1 1
WIDTH 1370
HEIGHT 1
VIEWPOINT 0 0 0 1 0 0 0
POINTS 1370
DATA ascii
-42.047356 1.5616076 1.3342493 6
-42.042858 1.5612972 1.6646616 8
-42.041161 1.4975371 0.56795269 5
-42.052811 1.5164263 0.2088418 5
-41.976273 1.560457 0.90853095 5.5
-41.975197 1.5539548 1.607619 7.4000001
-42.026886 1.5585163 0.46946895 7
-42.029366 1.5541961 0.84770215 5.666667
-42.030273 1.5457466 1.2254603 4.833333
-42.01746 1.5391996 1.6067824 7
-42.021847 1.5461714 1.897151 8.5
-42.139908 1.5593944 0.77864552 5
-42.116058 1.567832 1.1538637 6.0555549
-42.121441 1.5844364 0.36508673 6.5
-42.171783 1.5674896 0.7253142 2.5
-42.076492 1.5855756 1.6455412 7.166667
-42.021584 1.5065989 0.24863535 5
-42.059189 1.5520062 1.9521066 8
-42.097919 1.5411551 0.28114569 7.75
-42.142334 1.5363801 0.52734578 7
-42.038677 1.5822294 0.61916888 5.666667
-42.043915 1.5606186 1.0334615 5.9833341
-42.071831 1.543606 1.3672749 5.666667
-42.029903 1.551626 1.7062675 7.666667
-42.082039 1.5173638 1.704132 8
-42.008331 1.4810939 1.6941421 8
-42.007351 1.4878902 1.8633521 8
-42.012314 1.4930966 0.95563859 5
-42.036175 1.5152876 0.35698205 9.9333334
-42.061989 1.509587 0.67058462 6
-42.092102 1.5638518 0.35823947 7.25
-42.074059 1.5703068 0.74228221 6.4499998
-42.0546 1.5703473 1.2035549 5.9000001
-42.115192 1.5498204 1.5119121 5.4444451
-42.037079 1.5458019 0.182688 16.375
-42.002499 1.5257485 0.33619499 7
-42.023232 1.508003 0.40845776 7.5
-42.061756 1.5033324 0.70752949 5.5
-42.020119 1.4798341 1.4934641 6.5
-42.083389 1.5562623 0.90796793 5.2222219
-42.136868 1.5533578 1.3433341 2
-42.029419 1.5750926 1.2734697 5.6166668
-42.020401 1.5712607 1.5654851 7.166667
-42.047981 1.5784938 0.34237444 7.0396819
-42.082138 1.5517976 0.76477194 4.8611112
-42.143177 1.5497444 1.049849 3
-42.039639 1.5687306 1.0545883 6
-42.046326 1.489881 0.18323177 16
-42.090561 1.5412021 0.52598006 6.8000002
-42.026707 1.5652618 0.60306329 6.833333
-42.151108 1.5388951 0.86800605 3
-42.048134 1.5511699 0.9458527 5.6571431
-42.055206 1.5550137 1.225836 5.2857141
-42.012058 1.4933877 0.27699453 8
-42.111122 1.513103 0.4726252 4
-42.037926 1.5825224 0.53396744 6.520833
-42.07415 1.5723143 0.92810178 4.93502
-42.05109 1.565165 1.3963677 5.7817459
-42.144859 1.6017132 0.77670449 5.2380948
-42.158989 1.5885568 0.54735786 4
-42.107197 1.5531573 0.44788766 7.833333
-41.982109 1.5666633 0.39622951 11.837501
-42.139259 1.5589924 0.82556617 4.666667
-42.034546 1.5680976 0.83135921 5.650794
-42.163445 1.5676584 1.1426203 1
-42.046112 1.5606766 1.2086961 5.0476189
-42.025909 1.5644417 1.5920218 6.1428571
-42.021076 1.5641875 1.9815048 6.7671962
-42.067711 1.5511651 0.53992367 6.3234119
-42.057999 1.551651 0.91515809 5.083333
-42.045216 1.5516529 1.2936856 5.083333
-42.036381 1.545207 1.6766427 6.435185
-42.084019 1.5323744 0.2007449 12
-42.089466 1.5627446 0.38550818 17.785715
-42.052956 1.5307918 0.82225478 4.7321429
-42.076138 1.5201917 1.1944935 4.477777
-41.981369 1.5638404 1.2006719 5.333333
-42.095188 1.515141 1.5729387 6.3888888
-41.988628 1.5563073 1.5781639 5.9809518
-42.024666 1.5022073 0.48221093 6.2321429
-42.021526 1.4961219 0.91216803 5.071527
-42.032349 1.4966598 1.2223922 4.984127
-41.978558 1.5493131 0.35490304 13.958333
-42.048332 1.5772629 0.71110839 5.7976189
-42.051319 1.5765057 1.0744164 5.0357151
-42.035046 1.5790391 1.5030971 5.7723222
-42.085297 1.5668783 1.8116208 6.333333
-42.137531 1.5655866 0.59653944 8.5
-42.031979 1.5827456 0.60032511 5.984127
-42.050652 1.5722246 0.95875603 4.9107151
-42.033413 1.5690327 1.381676 5.4538689
-42.031677 1.5556369 1.7479513 7.375
-42.134583 1.5459118 0.33670238 17.111111
-41.995529 1.5661192 0.35198781 6.0999999
-42.127693 1.5743966 0.63710022 4.833333
-42.002777 1.5725551 0.64883864 7.083333
-42.13905 1.5842347 0.93605918 1.5
-42.015186 1.5623055 1.063906 4.887897
-42.01133 1.5667877 1.4248798 4.8194451
-41.999386 1.5552354 1.7891833 6.8125
-42.099861 1.5533648 0.23373184 7
-42.131165 1.5481844 0.46682352 7.9277778
-42.044777 1.5756731 0.47792673 6.6944451
-42.175709 1.5567193 0.87851369 4.083333
-42.068264 1.5538125 0.88860327 5.4416671
-42.080307 1.5415077 1.3042831 5.1805549
-42.074642 1.5355344 1.6070706 6.9375
-42.12471 1.5978026 0.63617253 6.7666659
-42.146828 1.5970764 1.0468951 5.3839288
-42.155403 1.5957375 1.4640574 5.0999999
-42.131134 1.5937209 1.7703807 6.7222219
-42.087406 1.534668 0.35061544 10.416667
-42.09391 1.5198474 0.76058263 4.4722228
-41.982521 1.5351024 0.77572006 5.8444438
-42.018082 1.4976435 0.8856895 5
-42.125664 1.5322418 1.1118083 3.333333
-41.9856 1.5476322 1.188875 4.666667
-42.042877 1.4979367 1.1760933 5.2750001
-41.9921 1.551033 1.6077313 5
-42.030106 1.4951844 1.5936086 7.1444449
-41.98748 1.5549207 1.9149753 3.25
-42.015945 1.4962173 1.8989888 7.875
-42.051704 1.5085526 0.39137563 9.1111116
-42.110466 1.5317216 0.73548132 4.666667
-42.068081 1.4981394 0.62252676 12
-41.990345 1.5311027 0.75538039 6.1071429
-42.020092 1.498075 0.74808073 5.375
-42.125595 1.5470195 0.97043109 2
-42.017803 1.540381 1.1651809 4.5
-42.010498 1.4969082 1.1606503 5.333333
-42.020267 1.5439386 1.5850567 3
-42.153698 1.5706124 0.37370062 4
-42.052723 1.541121 0.51059967 7.197917
-42.046871 1.5509996 0.92283392 5.2731481
-42.041561 1.5173168 1.0382416 5
-42.042824 1.5398135 1.335561 5.7583342
-42.048996 1.5132599 1.3307129 5.416667
-42.100666 1.5409689 1.6861286 6.25
-42.065399 1.5093346 1.7458078 7.3499999
-41.969406 1.5578461 1.7095598 7
-41.994732 1.5240226 1.8200191 8.166666
-42.08873 1.5064902 2.0476103 8
-41.974583 1.5451889 2.0738342 8
-42.017147 1.5095668 2.0585871 8.2333336
-42.123451 1.5860891 0.34196782 10.645833
-42.17384 1.5736914 0.74283326 5.3888888
-42.073654 1.5644212 0.75879174 6.25
-42.088818 1.555923 1.1648356 5.4181552
-42.084309 1.5343695 1.3394635 5
-42.041111 1.5678625 1.5900949 6.9333329
-42.074341 1.5326777 1.5784546 7.0166659
-42.068729 1.5294919 1.881075 8.3571434
-42.16206 1.57797 0.3820177 7
-42.114143 1.5881939 0.56597668 7.3095241
-42.139149 1.592186 0.96947062 5.4120369
-42.118401 1.5842452 1.3833315 5.7857141
-42.12574 1.5690308 1.7967169 7.8115082
-42.151577 1.5548911 2.093698 8
-42.103943 1.5334139 0.24789107 16.103897
-42.092171 1.5206251 0.59770119 7.895833
-41.997368 1.5424399 0.61452448 6.791667
-42.120384 1.5214257 0.99905509 4.416667
-42.021526 1.5246835 1.0155802 6.2476192
-42.059887 1.509028 1.4172184 6.5213289
-42.040123 1.4970694 1.8352864 7.992064
-42.050793 1.4862447 2.1365428 8.1000004
-42.038162 1.4725895 1.4708874 6.2249999
-42.069988 1.4860249 1.7648127 7.5
-42.106983 1.5620866 0.36006555 12.99091
-42.134888 1.5570912 0.76057303 6.2624998
-42.167702 1.5695329 1.1037941 4
-42.007069 1.5564637 1.6646464 8.166667
-42.029022 1.5342994 2.0175881 8.211112
-42.064114 1.519372 2.3150818 8.166667
-42.140572 1.5884643 0.71854711 6.7380948
-42.08226 1.5855632 1.1359382 6.2333341
-42.119415 1.5754333 1.5377502 6.6428571
-42.112041 1.5677576 1.9570813 7.958333
-42.091396 1.5647254 2.2683573 8.0357141
-42.081837 1.5352101 2.3248384 7.5
-42.063637 1.5694985 0.28497452 8.4285717
-42.122902 1.559926 0.56336397 9.2666674
-42.053135 1.5762997 0.69650131 7.5
-42.174831 1.5702124 0.95911562 4.2249999
-42.064987 1.5711207 0.98478866 5.3125
-42.117424 1.5559092 1.382081 5.8273811
-42.118626 1.5489554 1.7968445 7.385417
-42.126923 1.5437336 2.2202368 7.9666672
-42.097725 1.5245829 2.2229087 7.6388888
-42.179409 1.5445991 2.5213706 8.5
-42.124149 1.5180211 2.5275376 8.5
-42.059914 1.5315695 2.54741 9.5
-42.063553 1.5219922 0.30128223 8.5
-42.072849 1.5203767 0.59152335 7.476191
-42.114086 1.5205941 0.9907878 4.5562501
-41.991249 1.5431361 1.019124 4.729167
-42.150898 1.5406656 1.3373679 4.5
-42.043003 1.5137362 1.4183636 5.775794
-42.091099 1.5099015 1.8260396 7.4464278
-42.049072 1.4842029 1.8312628 7.5
-42.136974 1.5084977 2.245671 7.166667
-42.050247 1.4827099 2.2600026 7.8055558
-42.077885 1.4745417 2.5676351 7.916667
-42.006844 1.5206084 1.0444751 4.3375001
-42.043186 1.5363879 1.3932898 4.25
-42.083824 1.5489669 0.35428375 8.7063494
-42.103092 1.5495448 0.70605075 6.7333341
-42.010162 1.5525761 0.72853124 5.9222221
-42.150028 1.5868363 0.99176323 3.5
-42.056114 1.5428948 1.132695 5.072917
-42.066494 1.5375051 1.5489388 6.4861112
-42.072041 1.5321469 1.9737849 7.253572
-41.993832 1.5256209 2.1804752 8
-42.096481 1.51614 2.4029758 7.583333
-42.016014 1.510705 2.4242573 7.7222228
-42.144016 1.5136285 2.6463575 4.5
-42.059967 1.4978147 2.7323756 7.1833329
-42.123554 1.4121966 0.27875471 17.5
-42.172432 1.5279727 0.61444473 7.4111109
-42.074474 1.5817437 0.57374179 4
-42.103142 1.5432401 0.74867409 6.5
-42.068893 1.5748138 1.1168504 3
-42.140171 1.5227485 1.0386944 5.1833339
-42.168224 1.5158572 1.4526366 6.1904759
-42.187901 1.511817 1.8132663 7.125
-42.165791 1.5017395 2.255619 7.21875
-42.074131 1.513761 2.4755728 6.5
-42.18734 1.4822125 2.6325598 9.375
-42.112686 1.494194 2.6565332 9.916666
-42.145046 1.5219913 0.27546155 14.190475
-42.116074 1.5306687 0.58290601 7.8650789
-42.011185 1.5682335 0.60378909 3.5
-42.160511 1.5356054 0.93460149 4.4111109
-42.053467 1.5297117 0.95903957 4.916667
-42.104946 1.5167837 1.3700422 5.4749999
-42.120972 1.5141797 1.7948846 7.5
-42.108906 1.5051045 2.1717739 6.8948412
-41.998329 1.5448899 2.3371642 1
-42.13361 1.4912944 2.5476379 7.9444451
-42.029739 1.5101762 2.5815399 8.0555563
-42.165802 1.5230112 2.8788509 7
-42.095905 1.4915004 2.958622 7.9222221
-42.064018 1.4739175 0.19795778 20.585714
-42.067581 1.5253944 0.49667534 7.7870369
-42.096443 1.5302052 0.85563403 4.3472219
-42.108353 1.5245872 1.2798986 4.7785711
-42.136887 1.5325146 1.7072725 6
-42.047222 1.4888878 1.7240775 7.3000002
-42.075783 1.4953613 2.0956807 6.8035712
-42.07457 1.4841456 2.482523 6.768518
-42.079174 1.4810648 2.8834386 7.7222219
-42.08839 1.5224547 0.30098379 9.1619043
-42.085632 1.5341592 0.67141533 6.409523
-41.986961 1.5450702 0.81655145 5.5
-42.11375 1.5335841 1.0359545 4.5888891
-42.02005 1.524591 1.0572976 5.333333
-42.14706 1.5488095 1.2763916 4
-42.067554 1.5211091 1.4811476 5.4702382
-42.058964 1.513979 1.9247817 6.833333
-42.080936 1.5033774 2.3042083 6.9444451
-42.112633 1.5140305 2.6966801 7.3888888
-42.013935 1.4870672 2.7195311 6.7777781
-42.133774 1.5470691 2.9733195 5
-42.051819 1.4861174 3.1225777 8.0138884
-42.137405 1.5585465 0.39945138 9.8666677
-42.124817 1.5581574 0.77751541 5.9570112
-42.123188 1.5509458 1.1534061 4.75
-42.170662 1.5570211 1.5830439 5.6982141
-42.040367 1.5448914 1.6138206 4.416667
-42.104015 1.5245094 2.0447385 6.8703699
-42.130718 1.5251193 2.4304416 7.333333
-42.132587 1.5290089 2.8365803 6.8055549
-42.131618 1.5061879 3.252434 8.0444441
-42.056957 1.5129328 3.2786496 6
-42.161362 1.5404305 0.30765373 8.7407408
-42.155052 1.5364461 0.68963003 5.5370369
-42.151367 1.5245957 1.0710573 4.439815
-42.034081 1.5195746 1.1610644 3
-42.178394 1.527719 1.5114422 5.7895832
-42.056252 1.5018835 1.5393498 4.8375001
-42.127892 1.4945822 1.9754769 6.791667
-42.119865 1.4798446 2.3739452 7.0535712
-42.113194 1.4773226 2.7870641 8.1428576
-42.138092 1.4657326 3.204155 7.7222219
-42.067257 1.4542351 3.2242928 8.1111107
-42.148514 1.5386977 0.24527627 4.833333
-42.083942 1.4902124 0.26334929 7.5
-42.11298 1.5358982 0.57402462 8.6607141
-42.124123 1.5419149 0.95678669 4.7248669
-42.12249 1.5363717 1.3436837 4.4093909
-42.0065 1.5346489 1.5007387 1
-42.148361 1.5273538 1.7258599 6.4444451
-42.042847 1.512394 1.7512512 6.25
-42.185295 1.5497894 2.0469446 5.9000001
-42.103352 1.51263 2.198597 6.3928571
-42.114731 1.5003076 2.668308 6.5773811
-42.12841 1.4965124 3.0852129 7.2380962
-42.135254 1.4930539 3.3729587 7.583333
-42.072193 1.4812841 3.4653351 7.833333
-42.151821 1.4871612 3.6651688 9
-42.100559 1.4718246 3.6787362 7.666667
-42.08614 1.466969 3.6823773 8
-42.017441 1.5626326 0.30314273 8.3888893
-42.017509 1.5589409 0.69254881 5.5925932
-42.023457 1.5627561 1.0804327 4.1759262
-42.040482 1.5550647 1.4677556 5.4682541
-42.060925 1.558301 1.7929525 5.833333
-41.996574 1.5186148 1.9378086 7.2214289
-42.002422 1.5339899 2.6922846 5.9206352
-42.003376 1.5029154 3.1157961 7.2761898
-42.016499 1.4950376 3.4065127 8
-42.106102 1.5774112 0.32495248 6.916667
-42.020393 1.5401478 0.34469169 8.5999994
-42.067963 1.5563526 0.73392838 6.1767201
-42.067413 1.5540042 1.1336491 4.333333
-42.011395 1.5188365 1.2131556 5
-42.094803 1.5647683 1.528806 5.2888889
-42.019146 1.5182815 1.5455736 6.0555558
-42.114033 1.5650692 1.9308131 6.4444442
-42.064873 1.5161133 1.9397511 6.666667
-42.000969 1.5150619 1.9564848 7.583333
-42.112827 1.5454607 2.2047372 7
-42.124203 1.5680323 2.4130199 6.5
-42.018921 1.5123949 2.3662763 6.1714292
-42.122086 1.5846725 2.7017782 4.5
-42.040016 1.5072775 2.7856593 6.8222222
-42.109093 1.5618439 3.2161458 7
-42.053387 1.50596 3.2220395 7.552381
-42.06078 1.4976068 3.5218227 7.4000001
-42.057491 1.5713682 0.71167672 4
-42.084465 1.5597038 1.0468032 6
-42.114594 1.5452003 0.97319788 5.166667
-42.119938 1.5423603 1.3785909 4.9055562
-42.100945 1.5418921 1.7924687 6.1388888
-42.116009 1.5324302 2.2042041 6.1500001
-42.03838 1.5581784 2.3695426 0
-42.161564 1.5230021 2.6150808 7.7777781
-42.084335 1.5307355 2.6389794 5.833333
-42.144714 1.5260315 3.0589943 7.1111112
-42.145687 1.5153227 3.5114126 7.666667
-42.158554 1.5101109 3.8202009 8
-42.206131 1.5046496 0.32090378 5
-42.168655 1.494976 1.5180814 4
-42.187489 1.4772806 1.7952058 4.9000001
-42.168064 1.4604421 3.1882777 2.25
-42.234543 1.4391375 3.4718268 7.5
-42.250175 1.4364443 3.8644602 6.6555562
-42.238663 1.4169478 4.2783079 7.1999998
-42.135349 1.5222416 0.31396645 7.0952382
-42.139763 1.5274034 0.66957194 5.333333
-42.131008 1.5188518 1.0978755 4.3928571
-42.132256 1.5066662 1.4540583 5.2410722
-42.025898 1.4958324 1.5462373 6
-42.164894 1.5073581 1.8059454 6.4722219
-42.074638 1.4759355 1.8235428 6.3888888
-42.122997 1.4928298 2.2499557 5.6309519
-42.129173 1.4782281 2.6919923 6.5873022
-42.131287 1.4743423 3.1489151 6.931746
-42.151772 1.4602299 3.5338337 7.25
-42.062321 1.4546428 3.5612643 2.666667
-42.106724 1.4440322 3.9535785 5.4666672
-42.06562 1.4230566 4.389008 6.4375
-42.151638 1.5970135 0.33882207 5.7249999
-42.058887 1.5497313 0.35365957 5.833333
-42.102802 1.5706849 0.71231693 5.4904761
-42.093761 1.5721436 1.1502447 4.1904759
-42.087795 1.5541291 1.5896856 5.5892849
-42.115032 1.5551991 1.9522247 6.583333
-41.980316 1.5448604 1.977962 1.75
-42.143089 1.5718241 2.2449608 5.5
-42.046574 1.5325651 2.3368073 5.4523811
-42.089325 1.5446806 2.7849524 4.7539678
-42.082054 1.5389471 3.175621 6.1309519
-42.090649 1.5288978 3.5726538 6.6333332
-42.108902 1.5223002 3.9791591 7.125
-42.014141 1.5084209 4.0059781 3.666667
-42.241459 1.4309087 4.4215021 8.1999998
-42.057594 1.4874182 4.4182711 7.7222219
-42.094528 1.5275483 0.16501451 4
-42.090931 1.5194445 0.31514382 18.111113
-42.11145 1.5536485 0.7558347 4.992063
-41.994572 1.5495191 0.77100384 3
-42.147793 1.579257 1.1953127 3.4555559
-42.042633 1.5264201 1.2115381 5.25
-42.095043 1.5357327 1.6510199 5.648809
-42.096001 1.519352 2.0253682 6.2142859
-42.119839 1.5299325 2.4019878 5.6428571
-42.125336 1.5270309 2.8668933 5.9333329
-42.034412 1.493722 2.9635706 5.5
-42.098473 1.50769 3.2696605 5.9000001
-42.094635 1.4875093 3.6781063 6.5333328
-42.085556 1.4732146 4.1022859 6.614285
-42.118431 1.4503937 4.3478131 8.6000004
-42.123192 1.4859767 4.7202773 7
-42.033909 1.4454818 4.7398548 5.5
-42.037228 1.5010066 0.27141184 6.6111112
-42.101635 1.5553756 0.63836759 5.7142859
-42.085052 1.5462146 1.0188925 4.1428571
-42.09243 1.5337906 1.4727585 5.3214288
-42.110447 1.5289965 1.8503866 6.666667
-42.140835 1.5576458 2.0771871 5
-42.059841 1.5076551 2.2452557 5.2857151
-42.089996 1.5102372 2.7112005 5.666667
-42.07328 1.4962182 3.1170537 6.7333341
-42.069565 1.4784613 3.5300641 6.6555562
-42.106133 1.5048599 3.780412 4.833333
-42.032993 1.4412322 4.3177299 6.083333
-42.067062 1.4531894 4.584136 6.5
-42.162247 1.5012918 0.45992333 9.2222223
-42.122982 1.4935589 0.62126535 7.333333
-42.129269 1.5013423 0.85171086 4.4000001
-42.154079 1.497458 1.2342453 4.25
-42.154831 1.4934177 1.6996047 6.1166668
-42.172226 1.4880781 2.0861926 6.5
-42.079891 1.4800143 2.1067073 4.5
-42.210541 1.5001702 2.3937407 6
-42.135117 1.4716487 2.4898114 5.3055549
-42.192722 1.4942055 2.880223 5.5
-42.171459 1.483552 3.298804 5.4222221
-42.180313 1.4695549 3.717639 5.9333329
-42.218227 1.4490647 4.1386003 8.6111107
-42.148537 1.4310346 4.2491012 6.5
-42.092308 1.4506273 4.5510011 5.5481482
-42.198711 1.4514298 4.8869233 6
-42.131866 1.5525703 0.5343411 3.776191
-41.984432 1.5471969 0.54909301 1
-42.162563 1.5654783 1.0008631 3.5555561
-42.064869 1.5308805 1.0142179 3.1111109
-42.123276 1.5458417 1.3982692 4.1428571
-42.105854 1.5239382 1.7948645 5.0873022
-42.11557 1.5203824 2.1898413 3.491071
-42.143097 1.515965 2.5858281 3.4444439
-42.036533 1.4962587 2.6069932 1.333333
-42.176575 1.5423126 2.907876 4
-42.11684 1.5178766 3.0017872 3.333333
-42.152855 1.5174832 3.413269 4.5
-42.153419 1.5118704 3.8433099 3.916667
-42.194019 1.4700394 4.2655673 4.9333329
-42.211025 1.461206 4.6260052 6.1222219
-42.031113 1.4707804 4.6928353 3.5
-42.155083 1.4713068 5.0324445 5.333333
-42.103027 1.5839367 0.27692825 0.58333302
-42.102806 1.5676265 0.59731787 1.083333
-42.094982 1.5689416 0.99635845 2.8690481
-42.110119 1.5725493 1.3928041 4.2857141
-42.122761 1.5694385 1.7113731 6.25
-42.051537 1.5335498 1.799957 5.4444451
-42.081322 1.5441427 2.1999838 4.25
-42.06905 1.5446973 2.6123309 1.411111
-42.059124 1.5405235 3.0317013 1.1
-42.081215 1.5275793 3.4533556 2.5166669
-42.009186 1.5012937 3.4655495 1.5333329
-42.034691 1.49928 3.8992286 2.4000001
-42.197224 1.4212451 4.2833791 6
-42.021255 1.4801292 4.2621031 3.0178571
-42.06868 1.461278 4.6164293 4.875
-42.048218 1.4864893 5.0196166 4.1999998
-42.161678 1.5465679 0.35435486 0.98333299
-42.129128 1.5676322 0.76113188 0.66666698
-42.103691 1.543961 1.170491 2.666667
-42.116669 1.5600848 1.5756191 4.3142862
-42.106152 1.5433221 1.9866661 5.7222228
-42.110222 1.5385151 2.3992796 3.5857141
-42.012436 1.5056291 2.4979963 2
-42.132904 1.5523248 2.7322316 1.916667
-42.061382 1.5130997 2.8266234 0.66666698
-42.097866 1.5330033 3.2511721 0.75
-42.095848 1.5151272 3.6008229 1.416667
-42.103031 1.4962974 4.0453267 2.4000001
-42.203701 1.4377871 4.4630351 5.25
-42.094635 1.4756069 4.89676 3.5
-42.083157 1.4650588 5.2996902 4
-42.181396 1.5569592 0.83948064 0
-42.163017 1.5150394 1.1739036 1.097222
-42.027843 1.5088115 1.3547329 0
-42.189243 1.5195746 1.5844841 3.4333329
-42.12125 1.4760308 1.5920867 3
-42.169155 1.5129046 2.0044129 1.388889
-42.239777 1.4478893 6.3242145 2
-42.229401 1.4205284 7.4676838 2
-42.217964 1.3930264 8.6305246 3
-42.245056 1.4218559 9.2318726 1
-42.099091 1.4133091 10.439666 0
-42.220169 1.4926262 3.6495869 6
-42.202347 1.4664059 4.804822 4
-42.20639 1.431427 5.3838129 6
-42.231155 1.4515972 5.9734073 7
-42.213226 1.4258289 7.147666 7
-42.19413 1.429039 7.74582 3.5
-42.230003 1.4119129 8.9519644 6
-42.137535 1.3713894 10.799033 3
-42.229889 1.4227428 10.810824 0
-42.204201 1.5036678 4.5349422 3
-42.2267 1.4610596 7.5453496 4
-42.063072 1.5152531 0.60927367 2.5
-42.049915 1.4273052 5.995697 0
-42.100269 1.3524952 9.6884165 0
-42.085861 1.4767017 0.25886494 3
-42.062256 1.523737 0.62223852 2
-42.165619 1.5410461 1.8597897 2.5
-42.154922 1.5129738 2.4653897 4
-42.1255 1.5192719 3.0744843 3.5
-42.11948 1.4718628 3.6783104 4
-42.090233 1.4789505 4.2892108 3
-42.119633 1.4914494 4.908874 3
-42.110931 1.462574 5.5187011 5
-42.134407 1.4873829 6.1442785 2
-42.046059 1.4225578 6.1283121 3
-42.08453 1.4212666 6.7484946 4
-42.057278 1.4251957 7.3753781 2.5
-42.045357 1.3895569 7.9950185 3
-42.12365 1.4747238 8.0167065 1
-42.077766 1.3997879 8.6297379 5
-42.114147 1.4030838 9.2679729 2
-42.069244 1.4572144 1.4884032 0.5
-42.146767 1.5976658 4.5698972 1
-42.206356 1.5095577 4.6649075 3
-42.230667 1.4681816 5.9238682 6
-42.197067 1.4752216 6.560699 2.5
-42.220886 1.4375706 7.8342986 5
-42.144547 1.3921661 8.4672852 1
-42.174603 1.399353 9.1197119 4
-42.102684 1.4201431 10.445743 0
-42.125519 1.5485821 0.67977983 5
-42.043655 1.5013943 1.2958605 3
-42.125298 1.5093212 1.9337018 6
-42.097092 1.4924393 2.5576866 4.5
-42.066986 1.4669437 3.1795585 4
-42.087395 1.4773846 3.8120444 3
-42.163315 1.3826733 4.4360275 4
-42.060928 1.3906345 5.0603113 4
-42.094128 1.4309483 6.3407483 0
-42.135918 1.4571571 0.21258473 1
-42.092888 1.5343647 0.84912896 1
-42.109898 1.4993019 1.4827125 3
-42.11797 1.4965343 2.1158192 6
-42.129295 1.4910622 3.3829753 3
-42.20121 1.5189342 1.2368677 2
-42.214657 1.5055332 1.88006 5
-42.093853 1.4989681 1.8641198 3
-42.109337 1.4965611 2.5077889 7
-42.19239 1.5033703 3.8040316 4
-42.175461 1.4449635 4.4375091 8
-42.07608 1.424448 5.0732212 2
-42.191925 1.4450932 5.0868416 6
-42.149868 1.4376812 5.7293596 5
-42.165833 1.4405079 6.3835955 3.5
-42.142288 1.3971043 7.024415 7
-42.16465 1.3878574 7.6828794 6
-42.117325 1.3765583 8.338706 2.5
-42.197578 1.3814106 9.0085306 1
-42.100945 1.4904099 3.7563391 1
-42.123512 1.4817352 4.4018197 2
-42.139511 1.5012512 5.0531373 1
-42.058769 1.4200516 8.3118563 0
-42.089653 1.3992996 8.973876 1
-42.131935 1.3706665 9.6373329 0
-42.105289 1.541708 2.1224961 1
-42.095341 1.5165234 3.4325113 5
-42.128281 1.5004177 4.091826 6
-42.001945 1.4979115 4.080142 2
-42.027542 1.483469 4.7391157 3
-42.129951 1.5359745 4.7558289 4
-42.150101 1.549448 5.4209065 1
-42.052338 1.4863682 5.4026542 4
-42.087917 1.4677486 6.0673785 2
-42.11026 1.4782658 6.7362132 2
-42.072098 1.4798031 7.4057441 0.5
-42.053181 1.4431934 8.0677443 3
-42.085075 1.4349384 8.7466364 3
-42.059483 1.3962688 9.4172621 2.5
-42.148071 1.4083424 10.108956 2
-42.045773 1.4056606 10.799568 0
-42.167431 1.3973618 10.318622 3
-42.212616 1.472332 7.2272859 3
-42.227715 1.465374 8.6289749 3
-42.201965 1.3912277 9.3211622 5
-42.191422 1.4363594 10.047106 1.5
-42.205219 1.5002098 2.2092624 5.5
-42.196655 1.472847 3.5964715 7
-42.220905 1.4718323 4.2939143 4
-42.008503 1.4925117 4.2915545 3
-42.231846 1.4394493 6.3866816 3
-42.226776 1.4054527 7.792141 7
-42.13232 1.5173454 1.4733113 4
-42.101116 1.4681053 2.8605075 7
-42.185638 1.5353584 3.5635419 1
-42.200798 1.4476433 4.2525153 1
-42.167767 1.4732971 4.9548249 2
-42.101067 1.4177856 5.6475658 3.5
-42.14547 1.4213104 6.3516808 3
-42.061363 1.387455 7.0542755 2.5
-42.115555 1.368679 7.7570548 4
-42.098686 1.3553009 8.4676828 5
-42.085258 1.3334656 9.1823406 6
-42.086849 1.4289284 8.1311083 1
-42.087685 1.383049 8.8405972 2
-42.07198 1.3757362 9.5631142 4
-42.141441 1.3879509 9.2144661 1
-42.10041 1.3454361 10.670853 1
-42.114685 1.3732567 10.597507 3
-42.192604 1.441124 4.2731581 2
-42.100521 1.5072212 0.90790284 3
-42.061352 1.4851685 1.864381 2
-42.185478 1.4908295 2.861011 3
-42.153122 1.4433403 3.8140526 2
-42.115067 1.4178658 4.774518 1
-42.086655 1.4502449 0.93575609 2
-42.144836 1.4635124 1.9440236 6
-42.213516 1.4718285 2.9545434 6
-42.114483 1.4747162 3.9209504 4
-42.191029 1.4310226 4.933816 5
-42.172543 1.444561 5.9309745 2
-42.15921 1.4201927 6.9305124 5
-42.226501 1.4105682 7.957233 1
-42.120396 1.4709587 1.1846864 4
-42.142647 1.4584846 2.1722655 3.5
-42.1614 1.4639702 3.1617572 4
-42.105644 1.4050636 4.1306577 7
-42.143959 1.3860664 6.1233768 4
-42.081657 1.3491554 7.1025462 5
-42.114239 1.3405724 9.1108856 4
-42.100384 1.4619446 0.80464035 4
-42.111679 1.4588623 1.7929096 4
-42.124771 1.4380035 2.7865665 6
-42.045799 1.410965 3.7532434 5
-42.137794 1.4331207 4.7676616 2
-42.073578 1.3730316 5.737298 6
-42.09549 1.3532448 7.7387257 3
-42.172661 1.4441376 6.6445026 2
-42.189259 1.410347 8.6575832 2
-42.202362 1.3857651 10.685111 2
-42.08625 1.51091 4.2730188 2
-42.186237 1.4400711 10.327918 3
-42.100777 1.4676476 4.2260561 3
-42.243744 1.4306793 6.2525201 6
-42.18882 1.407299 7.2323756 4
-42.235046 1.398056 9.2670488 5
-42.156666 1.4631081 0.98214591 3
-42.088394 1.4384651 1.9556842 6
-42.09758 1.4617577 2.9533143 3
-42.115776 1.419754 3.9512553 6
-42.142059 1.3838158 5.957994 4
-42.07235 1.3420753 6.9431362 5
-42.191154 1.4571991 1.1228983 3
-42.112778 1.4458961 2.1015992 6
-42.190186 1.4747009 3.1200686 3
-42.122742 1.3972855 4.0927243 9
-42.131901 1.4085121 6.0992041 5
-42.055031 1.3808174 7.0843978 4
-42.142345 1.3854332 8.1218882 2
-42.063335 1.3565598 9.1172256 5
-42.189568 1.498703 3.7428026 3
-42.234653 1.4513664 5.7461629 5
-42.176605 1.4530106 6.7374315 2
-42.215981 1.4061203 8.7663984 4
-42.22644 1.4139404 4.9734721 4
-42.171055 1.4850197 4.3081465 3.5
-42.241459 1.4396782 6.3419638 3
-42.194443 1.510273 2.4409277 2
-42.216534 1.501339 2.7862451 5
-42.230873 1.4594803 4.8008399 5
-42.149036 1.4613228 5.79284 2
-42.240826 1.4314842 6.8294411 6
-42.159908 1.4046478 7.828371 3
-42.245468 1.411377 8.8790617 3
-42.153011 1.5067024 0.78431183 3
-42.154755 1.5181084 1.7898515 4
-42.171894 1.4768829 2.7960429 6
-42.199253 1.4431038 4.8152514 5
-42.123768 1.4490585 5.8099179 3
-42.222343 1.4148026 6.8490887 6
-42.145218 1.4157372 7.8528032 2
-42.241207 1.4077568 8.8942795 3
-42.120468 1.4885368 0.62651104 4
-42.025246 1.4676361 1.6148157 3
-42.194878 1.4726791 1.6625435 6
-42.089222 1.4728279 2.6449349 5
-42.163177 1.4758835 3.6777077 3
-42.070255 1.4415512 4.6636801 5
-42.143459 1.4389305 5.7023125 2
-42.047585 1.4160881 6.6961012 5
-42.117123 1.4265976 7.7462549 1
-42.112915 1.4669456 4.3924336 6
-42.167976 1.4231834 6.4540472 4
-42.229599 1.420433 7.502924 5
-42.123104 1.4130592 8.4997873 2
-42.112274 1.4577217 4.5588946 2
-42.205559 1.4460831 6.2721233 4
-42.252022 1.4329453 7.3228073 6
-42.17141 1.4439011 9.3829899 2
-42.21579 1.4155807 10.444973 1
-42.214539 1.4995346 1.2188437 4
-42.103157 1.5120544 2.2067928 2
-42.164383 1.4843597 3.2463908 5
-42.224606 1.4572144 4.28725 5
-42.112068 1.4470787 5.283793 2
-42.170303 1.4136658 6.3300586 6
-42.227371 1.4052734 7.3737416 3
-42.110935 1.4034691 8.3805132 2
-42.162704 1.3782043 9.443512 6
-42.246456 1.4062576 8.774231 2
-42.183556 1.5445595 1.2301033 3
-42.078346 1.482357 2.2182806 4
-42.086609 1.4432487 5.2965503 4
-42.143929 1.4259834 6.3465905 6
-42.088646 1.3813667 8.3972406 4
-42.142101 1.3692055 9.4583502 2
-42.198597 1.4356232 7.6500072 3
-42.203201 1.5128212 0.79939103 3
-42.234165 1.4424934 4.9861059 5
-42.238152 1.4306793 6.0393734 5
-42.095566 1.5413971 2.212945 2
-42.233288 1.4344826 6.4723411 4
-42.220306 1.4251671 7.5312257 3
-42.205265 1.3910522 8.5963697 4
-42.156437 1.4965744 2.7659678 4
-42.162529 1.4698219 3.811677 4
-42.164417 1.4429474 4.8655739 5
-42.161201 1.4355545 5.9282389 5
-42.146347 1.4438286 6.9903316 3
-42.2355 1.4561081 3.6154125 6
-42.18261 1.4659081 5.7407489 2
-42.135784 1.4890671 0.90340388 5
-42.118229 1.4866371 1.9613384 5
-42.085094 1.4352875 4.0692282 5
-42.064125 1.4217415 5.1289034 5
-42.106464 1.4815788 0.26362735 4
-42.093502 1.4835396 1.320056 5
-42.078796 1.4817505 2.3793883 6
-42.031235 1.4504204 5.5550985 2
-42.160255 1.4777908 1.6329439 4
-42.225361 1.4837036 2.726975 4
-42.144413 1.539257 0.754866 2.5
-42.109772 1.5040245 1.8074954 4
-42.167065 1.4968872 2.8957293 7
-42.140858 1.4724655 3.9524739 5
-42.113808 1.4402618 5.0116806 5
-42.083195 1.4559212 6.0777574 6
-42.053772 1.407589 7.1436863 6
-42.123039 1.3470001 10.430719 4
-42.195625 1.5129547 0.63845021 4
-42.186752 1.5003815 1.6926601 5
-42.186604 1.5087204 2.7500319 6
-42.186783 1.4974632 3.808866 5
-42.186165 1.4784012 4.8705173 5
-42.183945 1.4713669 5.9360518 7
-42.179787 1.4639778 7.0074444 6
-42.174862 1.4483681 8.0815811 6
-42.171463 1.4295654 9.151783 7
-42.141235 1.483387 2.5972311 5
-42.171539 1.4497604 4.7212801 5
-42.183609 1.4488258 5.7904339 6
-42.19669 1.4000473 6.8577652 5
-42.20929 1.39188 7.9245481 5
-42.217068 1.3981819 9.0053844 4
-42.161865 1.537632 0.45342499 5
-42.101292 1.4930878 2.5204647 4
-42.1483 1.4712029 3.5763316 5
-42.204838 1.4580498 4.6356435 6
-42.144073 1.4102478 6.7105412 3
-42.198437 1.3941498 7.7809367 5
-42.084648 1.5452614 0.72019571 4
-42.009865 1.5125732 1.7352686 5
-42.034775 1.5071945 3.8064554 6
-42.053234 1.4590263 5.8756342 2
-42.067547 1.5473442 0.91513848 3
-42.092766 1.5770645 1.9541657 3
-42.121723 1.5201492 2.9948423 6
-42.124245 1.4496536 6.0889425 4
-42.065777 1.4383545 7.1148062 2
-42.088062 1.5415764 1.4320827 4
-42.013321 1.4853172 2.4511204 8
-42.037148 1.4990654 4.5328078 6
-42.065121 1.4775772 6.6185584 2
-42.165253 1.568676 1.0944965 2
-42.147945 1.5112495 2.134217 5
-42.183064 1.463047 5.2854657 6
-42.081078 1.4532585 6.3016911 4
-42.152878 1.4256134 7.3747115 5
-42.040356 1.4221382 8.3977489 3
-42.114857 1.3680496 9.4696941 6
-42.176888 1.5015411 3.4591229 2
-42.20414 1.3923035 7.6395073 4
-42.050953 1.5502663 1.2997952 3
-42.148918 1.5288696 2.3672328 4
-42.064651 1.5153465 3.3854818 4
-42.092987 1.4692154 5.4771504 6
-42.020893 1.4568405 6.5014324 3
-42.124649 1.4510574 7.5770302 3
-42.054943 1.4137077 8.6023083 3
-42.096512 1.5256615 0.25600356 2
-42.084969 1.517334 2.3455675 4
-42.071663 1.469677 4.4289918 10
-42.070679 1.4464531 6.5244694 5
-42.072979 1.4388962 8.6303568 3
-42.209728 1.4014549 9.2360439 1
-42.236591 1.4293709 9.1659698 5
-42.18301 1.4759789 3.3176885 4
-42.249325 1.4085884 8.5008268 4
-42.246254 1.4438858 5.7040296 6
-42.205727 1.4362335 6.7401004 4
-42.20871 1.4974098 2.8858986 7
-42.199566 1.440239 5.9942541 6
-42.133568 1.4355202 7.0303144 3
-42.174408 1.3984489 9.1453991 2
-42.120152 1.5196648 0.23255384 3
-42.14122 1.4889374 1.2743217 3
-42.160671 1.4634209 2.3180876 6
-42.090782 1.4687996 3.3411651 4
-42.126698 1.4282608 5.4245582 6
-42.05249 1.4294891 6.459033 2
-42.141823 1.4292488 7.5359468 3
-42.132973 1.4978218 0.75938046 4
-42.160126 1.4616547 2.8476105 7
-42.184795 1.4382133 4.9305658 5
-42.106163 1.4161835 5.9614077 5
-42.17886 1.494709 0.76331335 4
-42.173538 1.5031853 1.8080149 4.5
-42.168789 1.4688911 2.8520551 6
-42.156731 1.4437866 4.9355326 5
-42.059917 1.4209747 5.9650259 3
-42.125515 1.396862 7.0395293 3
-42.083981 1.4774933 0.30427194 5
-42.076672 1.4698143 1.3460865 2
-42.068302 1.4513474 2.3904338 6
-42.199562 1.48946 0.40615964 7
-42.100761 1.4755211 1.4224448 4
-42.07412 1.4575081 3.5094359 5
-42.146172 1.4435654 4.5800915 6
-42.116173 1.3913307 6.6679649 6
-42.065067 1.3637772 8.7845726 2
-42.119148 1.5171852 0.74460661 2.5
-42.105129 1.4740944 1.7858025 6
-42.140617 1.4263268 4.944459 5
-42.103142 1.3887749 7.0354948 6
-42.094112 1.5141449 0.27575552 5
-42.1647 1.4920769 1.3404303 4
-42.060242 1.4693413 2.3561416 5
-42.128052 1.4727249 3.4241085 6
-42.152699 1.4620743 6.5892639 1
-42.044563 1.3940926 7.6119771 5
-42.103832 1.4017677 8.7026091 3
-42.181725 1.4994888 1.6062291 6
-42.073082 1.5040169 2.6226935 3
-42.091511 1.4328651 5.7850351 3
-42.155289 1.4127235 6.8530149 5
-42.098328 1.3940125 8.972455 5
-42.102753 1.5454445 0.93343073 2
-42.157116 1.4904709 1.9989903 5
-42.208382 1.495636 3.0671737 5
-42.18438 1.4344025 6.2320576 6
-42.233883 1.4171715 7.3025379 2
-42.106373 1.4157448 8.333106 3
-42.149319 1.3810997 9.4225645 7
-42.190567 1.5107765 1.6891581 5
-42.207451 1.4305077 5.9193339 5
-42.162895 1.4111557 9.1102486 3
-42.244976 1.4367371 7.7749138 5
-42.16053 1.4086723 9.8984232 2
-42.230576 1.4647865 6.2075891 4
-42.191746 1.453022 6.4032216 2
-42.223595 1.487751 2.6669996 7
-42.238056 1.4616508 5.8372431 4
-42.111328 1.5157204 1.675841 3
-42.184032 1.4877739 2.7367353 4
-42.144558 1.4809227 4.8344121 1
-42.197205 1.5072937 0.5347144 6
-42.176682 1.5073929 1.5790212 4
-42.158161 1.4850006 2.6152022 6
-42.222118 1.4711533 3.6845834 5
-42.161453 1.4171715 5.7820706 1
-42.165092 1.4741592 1.5083413 5
-42.056168 1.4446106 2.5185161 2
-42.2272 1.489109 2.5704017 5
-42.170929 1.4441833 4.6651645 4
-42.186256 1.4755821 1.6094359 5
-42.081924 1.4884186 2.6215148 2
-42.148407 1.4626923 3.6905808 5
-42.084629 1.4890823 0.64995521 2
-42.16032 1.4761772 1.7184639 6
-42.136166 1.4677467 3.8001795 6
-42.205521 1.4677391 4.8772054 4
-42.092609 1.4420204 5.9013104 2
-42.190216 1.5128403 1.7951714 6
-42.203083 1.4759903 1.9676697 6
-42.173923 1.4148026 5.0857935 3
-42.17812 1.5330353 2.2521954 4
-42.232384 1.4492683 4.3310647 9
-42.153061 1.4578171 0.97959918 3
-42.094028 1.4586029 2.0021293 6
-42.150707 1.4458923 4.0827975 5
-42.087952 1.4309731 5.1136346 5
-42.144314 1.4619598 0.93591863 3
-42.071499 1.4749985 1.957938 5
-42.101994 1.4349365 4.0384045 5
-42.111324 1.5397453 0.88155502 2.5
-42.133862 1.4806709 1.9255185 5
-42.0681 1.4766159 2.9403749 5
-42.103935 1.4281578 5.0355763 5
-42.191021 1.484478 1.3955457 5
-42.128635 1.4580193 2.4096735 7
-42.168312 1.4530869 4.505312 5
-42.089996 1.4304771 5.5316138 3
-42.189308 1.4868088 1.0734856 3
-42.120899 1.4935875 2.0878899 6
-42.152245 1.4356117 4.1809955 9
-42.067455 1.4582443 5.2092295 3
-42.045403 1.4960632 0.69550776 4
-42.139664 1.4788971 1.7548025 6
-42.056034 1.4812393 2.77651 7
-42.104446 1.4584541 0.89876199 4
-42.107002 1.4944611 1.9356158 4
-42.108891 1.455658 2.9794004 6
-42.094234 1.4359245 5.0782118 3
-42.16214 1.5161171 0.89421916 3
-42.076065 1.4803314 1.9152339 6
-42.163734 1.4870949 2.9758694 5
-42.075554 1.4583893 3.9972479 6
-42.055752 1.4230194 6.0988874 2
-42.090862 1.4948578 0.97231144 4
-42.171612 1.4754372 2.0408442 5
-42.158607 1.4222336 4.1216669 10
-42.135559 1.4119453 6.2239103 5
-42.186989 1.5189056 1.4327836 3
-42.170422 1.4974174 3.5202804 4
-42.24889 1.4415169 4.5882163 10
-42.227737 1.4217033 6.6787062 6
-42.187202 1.3787918 8.7941456 3
-42.202538 1.509716 2.3143094 5
-42.203266 1.4339981 7.5788517 4
-42.16428 1.4941521 1.7547617 5
-42.218887 1.4829292 2.8253627 7
-42.205917 1.4332619 5.9828258 6
-42.253017 1.4342346 7.0671821 4
-42.19569 1.5289688 0.93936163 2.5
-42.174995 1.4724426 1.9811106 7
-42.189934 1.42836 5.1358705 5
-42.248547 1.4377289 6.2124515 1
-42.132633 1.4062347 7.2433095 5
-42.177624 1.40345 8.326767 2
-42.22448 1.4818687 4.7867022 4
-42.192001 1.500721 1.1216942 3
-42.208725 1.4995956 2.1608388 2.5
-42.225876 1.4718628 3.2006297 3
-42.153919 1.4554863 4.2212591 3
-42.173996 1.4848366 0.84817588 3
-42.110867 1.4596024 1.8654306 4
-42.158447 1.4311028 3.9479954 1
-42.059982 1.508873 1.0304371 2
-42.170971 1.4737053 2.088995 6
-42.176674 1.4376259 5.1927123 3
-42.118965 1.4073677 6.2178822 2
-42.150314 1.5063667 0.63702106 4
-42.095665 1.5052109 1.6600978 6
-42.032726 1.4897461 2.6769958 3
-42.103809 1.4453812 4.7572541 1
-42.097591 1.4929924 1.1927875 3
-42.023727 1.4533463 2.2136297 6
-42.041939 1.440239 4.2917442 1
-42.015137 1.5138664 1.1099591 2
-42.190536 1.5320435 1.1543691 3
-42.122173 1.4688683 2.1756821 5
-42.150154 1.4561958 4.2541237 3
-42.210892 1.5045929 1.3274667 4
-42.207809 1.4413071 7.0899668 6
-42.077705 1.4886017 1.0432253 3
-42.082298 1.4738388 2.0854282 3.5
-42.085564 1.4562225 3.1305544 6
-42.091415 1.4204979 5.2156329 6
-42.089066 1.3791695 7.321805 5
-42.062794 1.4715652 1.16136 4
-42.07943 1.4790535 2.2029414 3.5
-42.097687 1.4198952 3.243855 6
-42.054718 1.391304 6.3576818 7
-42.076199 1.3723755 8.4736929 3
-42.133904 1.4670525 1.7317339 2
-42.103073 1.4859619 0.97140872 3
-42.051041 1.4472389 1.9878447 6
-42.052753 1.4038086 6.1151495 3
-42.024452 1.4811363 1.9916153 3.5
-42.057915 1.4646072 3.0287509 6
-42.051414 1.4007111 7.1639619 3
-42.160782 1.4953423 0.21335834 6
-42.115726 1.4825668 1.2306473 5
-42.157475 1.4862137 2.27402 3.5
-42.01384 1.4744835 3.2715209 2
-42.10149 1.4220963 5.3516555 6
-42.055119 1.4140282 6.3783011 3
-42.138187 1.3671379 8.4826174 2
-42.113617 1.4902954 0.16404629 6
-42.100468 1.4756851 1.1824688 4
-42.086166 1.4669495 2.2065854 6
-42.062748 1.4599571 3.2253623 6
-42.136559 1.4354286 6.2081423 3
-42.146683 1.4218369 7.2416897 4
-42.155975 1.4174614 8.2798357 4
-42.166676 1.3915939 9.3112164 6
-42.234165 1.4604111 7.1802545 3
-42.04628 1.4697495 1.2249972 4
-42.041138 1.4598236 2.2477155 6
-42.027077 1.4691162 0.9096607 3
-42.020962 1.4650307 3.9393029 3
-42.18092 1.4865456 1.693856 7
-42.100693 1.4983902 2.7006888 4
-42.20311 1.4825745 3.7157872 6
-42.216297 1.455246 5.7434525 3
-42.138115 1.4169655 6.7486019 6
-42.058887 1.4006691 7.7596135 2
-42.161377 1.3866653 8.7903538 3
-42.175854 1.4325752 10.221601 4
-42.22023 1.4822044 6.1228366 3
-42.203892 1.4027634 9.2078142 2
-42.06271 1.4558716 0.76887286 4
-42.022999 1.4735298 1.7754581 3.5
-42.035076 1.4308243 3.8053479 6
-42.056648 1.4434128 1.4018588 4
-42.114517 1.4651375 2.4189472 2
-42.160259 1.4886513 2.1351051 7
-42.158493 1.4528427 6.2454462 5
-42.157753 1.4435654 7.2724118 5
-42.154449 1.4467049 8.312521 4
-42.150627 1.3906059 9.3548679 6
-42.210777 1.45895 5.3868761 5
-42.220894 1.4140511 7.4962149 6
-42.164619 1.5068817 0.96932161 4
-42.195477 1.4926109 2.040729 5
-42.123386 1.4078331 6.2738619 3
-42.154705 1.4061775 7.3573151 2
-42.034454 1.4725037 0.41595668 7
-42.071823 1.4806519 1.4871016 5
-42.038673 1.4131317 5.7184658 5
-42.169933 1.5154762 1.0378597 3
-42.046829 1.4924469 2.0551028 5
-42.095531 1.4423294 3.1240559 6
-42.145069 1.4287262 4.1868129 9
-42.061535 1.4085922 6.2861934 5
-42.09317 1.3873367 7.3633924 2
-42.067261 1.4843788 0.88243067 3
-42.127586 1.4755363 1.9512273 6
-42.186775 1.4548073 3.0198355 5
-42.131264 1.4141502 5.1001968 6
-42.184505 1.4420967 6.1825638 2
-42.055393 1.3961334 7.204761 2
-42.064816 1.5411491 1.1251173 2
-42.126114 1.4742546 2.1902626 7
-42.185959 1.4834404 3.2598035 7
-42.131645 1.4237175 5.3397617 5
-42.187599 1.3823586 6.4105072 6
-42.23209 1.4379845 7.7900796 4
-42.122192 1.4886398 0.93426329 5
-42.174694 1.4692192 1.9981384 5
-42.152702 1.4259987 5.1491542 6
-42.202919 1.4286652 6.215476 3
-42.077057 1.3906288 7.2350879 3
-42.11985 1.3648834 8.318203 5
-42.053345 1.4776268 0.25537002 4
-42.163437 1.50317 0.97020626 4
-42.116856 1.4849854 3.0432107 6
-42.125206 1.4444695 6.1972361 6
-42.069885 1.4323273 8.291441 5
-42.122475 1.3693848 9.3724651 6
-42.196198 1.4291916 7.5958481 3
-42.236755 1.4093552 8.680131 5
-42.100681 1.4582062 2.5223763 6
-42.089016 1.4479752 4.6035209 6
-42.074768 1.4187698 6.6832576 5
-42.105019 1.4880867 1.1077812 3
-42.128326 1.511322 0.71128863 3
-42.035866 1.4586945 1.7226892 5
-42.02597 1.4584732 3.7992246 7
-42.201267 1.501152 1.4230422 2
-42.255451 1.4346886 5.5765252 5
-42.18021 1.3920174 6.5876393 5
-42.1898 1.4724121 6.1254339 3
-42.236145 1.3979492 9.3016996 4
-42.161678 1.4978676 0.98858082 1
-42.040417 1.4504356 1.9963125 6
-42.050858 1.4694519 1.1074269 4
-42.083191 1.4545822 2.1684449 5
-42.058277 1.3999062 7.4449267 3
-42.168453 1.4783974 1.6758695 6
-42.146824 1.426445 5.8815637 6
-42.181587 1.4197578 6.9458594 3
-42.067898 1.3905792 9.0478668 2
-42.202282 1.499733 0.93746167 4
-42.225807 1.4297066 5.1346102 6
-42.188683 1.3879204 8.2919626 3
-42.13303 1.5321541 1.2585008 2
-42.16449 1.4104004 5.5097857 5
-42.174271 1.4158249 6.5729599 6
-42.177452 1.3890839 7.6437902 6
-42.177364 1.369545 8.7246819 5
-42.041164 1.4994698 1.0636269 4
-42.078304 1.4926453 2.1201982 4
-42.257416 1.4232216 7.4139471 5
-42.244511 1.4000854 10.596212 2
-42.180988 1.5090332 0.75948453 5
-42.067196 1.5057106 1.765099 5
-42.121452 1.4628639 2.8221977 7
-42.113937 1.4174843 5.950408 6
-42.164577 1.3928757 7.0168467 3
-42.043602 1.4022675 8.0425568 2
-42.077065 1.3439178 9.1123219 3
-42.031139 1.5029602 1.1904579 3
-42.043526 1.4467545 5.3728008 5
-42.050064 1.4826355 0.9958421 4
-42.02594 1.4771843 3.0552549 6
-42.172844 1.4939003 0.86237669 4
-42.160393 1.4250107 6.0454111 6
-42.223347 1.4291534 7.1125445 3
-42.112228 1.4453354 8.1382084 3
-42.154892 1.4004669 9.2083263 3
-42.134865 1.5034447 1.244348 4
-42.184044 1.4449234 2.2967901 6
-42.171951 1.4180717 5.4192591 6
-42.099598 1.3753319 7.4878778 3
-42.202168 1.4524956 6.9808359 3
-42.205086 1.5187988 0.32513738 6
-42.098423 1.5078506 1.3277162 4
-42.161362 1.4743271 2.3813965 6
-42.115509 1.4436874 4.4449515 11
-42.071045 1.4383888 6.5121298 4
-42.130188 1.4207191 7.5789571 5
-42.042225 1.5142593 1.0436682 5
-42.101433 1.4919014 2.0958571 6
-42.045502 1.4598656 4.1545329 6
-42.046295 1.4468765 7.2865229 6
-42.086205 1.5122948 0.34667265 5
-42.156364 1.5014687 1.3979255 5
-42.051651 1.4897346 2.4012637 7
-42.119694 1.4772072 3.4557681 6
-42.077923 1.450634 5.5238376 6
-42.033218 1.4177322 7.5922279 6
-42.092819 1.4043236 8.6679134 4
-42.153694 1.5100746 0.95120519 3
-42.137722 1.4606209 3.0058866 6
-42.118057 1.4130554 5.068934 6
-42.193707 1.3899231 6.129282 2
-42.095341 1.3592758 7.1333189 5
-42.232677 1.4274254 6.8383079 6
-42.189644 1.380825 8.9130812 6
-42.076813 1.3484116 9.9314232 5
-42.219383 1.4920807 1.1199167 4
-42.161442 1.4865379 2.1241672 5
-42.209908 1.416748 4.1784501 15
-42.153419 1.4367561 5.1921582 5
-42.205753 1.4154434 7.2595143 4
-42.14043 1.3972282 8.2784843 5
-42.035011 1.4884186 2.2277479 6
-42.209839 1.5037994 0.64406353 5
-42.121048 1.4835052 1.6453662 6
-42.111725 1.4199524 5.7622094 6
-42.101398 1.3787308 7.8299551 7
-42.17252 1.5078926 1.933736 5
-42.230465 1.4551125 5.0480266 6
-42.138435 1.4790268 6.0615659 2
-42.206947 1.4161301 7.1125417 6
-42.17741 1.3925819 9.2049866 6
-42.123695 1.4786644 0.61428744 4
-42.194077 1.463089 1.6636376 6
-42.158772 1.4349442 3.7171934 6
-42.120354 1.412529 5.7823071 5
-42.18314 1.3817673 6.8440776 5
-42.087563 1.4345245 7.8580718 2
-42.142658 1.3738289 8.9234285 6
-42.081337 1.4650879 2.6265469 6
-42.113609 1.3902512 6.7530437 2
-42.12336 1.5204239 1.0484158 4
-42.110226 1.4731255 3.1013973 6
-42.091003 1.4611778 5.1615086 5
-42.162834 1.4329338 6.2216482 2
-42.061264 1.4190521 7.2342405 5
-42.13961 1.4239655 8.2969484 3
-42.034847 1.405262 9.3157148 4
-42.180931 1.4510956 2.6206453 6
-42.185478 1.4104652 4.678318 5
-42.198406 1.4079781 8.0194254 1
-42.105923 1.5411644 0.53101569 5
-42.017582 1.5265236 1.5325277 6
-42.014275 1.4912224 3.5851688 6
-42.01141 1.477417 5.6501384 7
-42.005913 1.4611359 7.7206159 5
-42.247768 1.4381294 0.22494006 6
-42.145508 1.4906311 1.2230992 1
-42.205612 1.4351387 2.2721479 6
-42.140472 1.4172554 6.3985653 2
-42.146984 1.5213203 0.92204881 3
-42.171516 1.4661026 1.948838 5
-42.116451 1.4558525 2.9561005 8
-42.117695 1.3922348 6.0248818 6
-42.063316 1.4013748 7.0426106 5
-42.105858 1.374794 9.1369343 3
-42.061161 1.5109253 0.77552402 4
-42.064964 1.4960403 2.8287413 5
-42.062634 1.4716568 4.8915415 5
-42.051476 1.4179878 6.9543762 5
-42.03891 1.3956223 9.0462837 4
-42.03923 1.5011139 2.0569634 5
-42.064064 1.4764366 6.1820536 2
-42.176975 1.4480591 1.0430963 4
-42.11676 1.4384766 2.0462072 5
-42.169601 1.4025917 4.0996222 5
-42.263824 1.4348183 2.1016092 6
-42.051697 1.5103645 0.85228837 2
-42.074661 1.4692268 1.8758919 6
-42.020725 1.4805489 2.8802786 6
-42.068546 1.4183388 4.9362831 5
-42.114407 1.3653107 7.006793 2
-42.054794 1.5133171 0.64317185 6
-41.989677 1.527359 1.6491861 6
-42.09008 1.488842 2.6997695 2
-42.107948 1.4336281 1.5204146 4
-42.15221 1.5015678 0.064699292 5
-42.200905 1.4542427 1.1226248 5
-42.205173 1.4474678 4.2343259 6
-42.155731 1.4445229 6.298943 5
-42.212921 1.4198647 7.3638425 4
-42.13995 1.3621025 9.4499407 7
-42.079224 1.4932442 0.83882171 4
-42.069862 1.5104027 2.8933122 6
-42.046867 1.4580994 4.9542227 5
-42.032295 1.4453697 7.0320616 5
-42.138824 1.4801979 0.93093526 2
-42.204178 1.4248886 1.9850307 5
-42.123856 1.4820938 2.9980841 3
-42.167572 1.3941689 4.0502129 9
-42.145618 1.3724976 6.119123 5
-42.127228 1.3704262 8.2072477 5
-42.103489 1.3676529 10.319733 2
-42.227425 1.4193306 3.3508382 5
-42.232048 1.4372711 1.205456 4
-42.206261 1.4310226 2.2419014 3.5
-42.167824 1.4140778 3.2714651 6
-42.116302 1.3442726 8.4971008 3
-42.017704 1.5698051 0.25799203 4
-42.086632 1.5179443 1.3129104 5
-42.00177 1.5557556 2.3256526 7
-42.173203 1.5196075 2.3740754 2
-42.064911 1.5165367 3.3799543 5
-42.047249 1.4940262 5.4486971 7
-42.028038 1.4764175 7.5329146 4
-42.097961 1.43713 8.6077271 1
-42.032959 1.4449615 10.789337 3
-42.155388 1.448204 1.8340185 6
-42.079288 1.458168 2.8464992 4
-42.254425 1.4196815 3.9222989 5
-42.096367 1.4557648 4.9095802 4
-42.191376 1.4235725 5.9687729 2
-42.116081 1.4361534 6.9863691 5
-42.039192 1.4467278 8.007762 2
-42.12793 1.4055061 9.0823612 5
-42.229206 1.4011307 10.168137 3
-42.202332 1.4723892 0.23981047 5
-42.129238 1.4918709 1.2528658 4
-42.207108 1.441555 2.3040657 5
-42.13382 1.4565277 3.3123121 5
-42.143887 1.4121666 5.380127 5
-42.153122 1.376564 7.4639335 6
-42.14138 1.4554367 1.5502727 6
-42.151344 1.4551735 1.0918537 4
-42.219673 1.4708023 2.1506071 3
-42.112053 1.4774399 0.86323392 4
-42.002052 1.5362816 1.8691622 2
-42.078636 1.4898186 0.96824181 4
-42.124294 1.4835358 1.1636678 4
-42.052094 1.5114059 1.1668664 4
-42.079842 1.4801331 2.2262058 5
-42.046219 1.4328194 4.3218169 4.5
-42.084267 1.4806137 1.1112797 4
-42.195183 1.5013733 1.2250258 3
-42.063091 1.4931221 2.2309203 5
-42.148911 1.4456367 4.355495 4
-42.122494 1.5052719 0.21269286 5
-42.157436 1.4518585 1.2700529 4
-42.210403 1.451889 2.3292739 3
-42.121876 1.4283409 4.3993044 10
-42.187969 1.4913597 0.38540888 7
-42.065849 1.5081673 1.3900551 4
-42.106361 1.4721947 2.4488478 7
-42.156853 1.4669571 3.5101204 5
-42.119827 1.4889603 0.76714897 4
-42.080009 1.4768829 1.7977381 3.5
-42.215729 1.4485016 2.8838432 2
-42.131172 1.4269714 4.9557323 4
-42.065659 1.5825958 0.88279736 3
-42.0317 1.53685 2.9445386 6
-42.099487 1.4974937 4.0028486 1
-42.00325 1.5158882 5.0149002 5
-42.063889 1.4634705 6.0792847 4
-42.227074 1.4743881 4.4695749 7
-41.986614 1.534523 5.4384809 6
-41.997299 1.4840431 7.5217915 3
-42.100208 1.4092026 10.698626 3
-42.070534 1.5483971 0.49744713 5
-42.024635 1.5228157 1.5144149 5
-41.990273 1.5250359 2.5262427 8
-42.054932 1.4735146 5.6089067 4
-42.008408 1.4669418 6.6229262 6
-42.204117 1.465313 0.34005058 5
-42.171951 1.4637947 1.357417 4
-42.144646 1.4711914 2.3699346 6
-42.178883 1.3992653 6.4666333 4
-42.149303 1.3961678 7.4854856 6
-42.115826 1.383461 8.5075579 5
-42.075371 1.353508 9.532732 5
-42.096931 1.5851135 0.39111173 3
-42.074348 1.5590401 1.4209876 5
-42.13829 1.5220337 2.4808702 4
-42.02948 1.5408211 3.4851975 5
-41.988678 1.5016251 5.5499787 4
-42.059254 1.4828529 6.6153035 5
-42.018745 1.4610825 8.7073851 6
-42.058479 1.3648643 9.7769604 7
-42.099567 1.5533333 0.98187649 3
-42.020866 1.5556831 1.9887077 6
-42.102962 1.4872055 4.0758548 7.5
-42.117119 1.4904366 5.1100216 2
-42.038986 1.4958382 6.1228266 6
-42.051346 1.4673462 8.209259 5
-42.014931 1.5115471 5.6495867 1
-41.982296 1.5154305 6.6671462 3
-42.031654 1.4273911 9.7844906 4
-42.134167 1.4914589 1.126563 1
-42.138939 1.5084229 2.1426978 2
-42.047722 1.5157471 3.1367235 2.5
-42.118744 1.4534378 4.1685834 8
-42.110855 1.4603806 5.1822286 1
-42.100983 1.4319534 6.1963367 1
-42.077682 1.3788338 10.305928 4
-42.101078 1.5076523 0.77185857 4
-42.096931 1.5126686 1.7849582 5
-42.08662 1.5007515 2.8010898 6
-42.060482 1.4558029 4.8285079 6
-42.044224 1.4526825 5.8427763 5
-42.129475 1.3582039 5.8676834 3
-42.105335 1.5262871 2.8682337 1
-42.258446 1.4272537 3.9820642 8
-42.107571 1.460743 4.9829068 4
-42.124969 1.4606705 6.0474024 5
-42.137295 1.4496193 7.1160989 5
-42.143269 1.4237022 8.1875887 6
-42.152611 1.4126778 9.2681036 6
-42.018211 1.5695572 2.9492965 3
-42.017281 1.5438728 4.0076818 5
-42.021221 1.5337334 5.069212 6
-42.016159 1.5014954 6.1328936 5
-42.022072 1.5033531 7.2035542 4
-42.085827 1.4968147 2.3646107 1
-42.150505 1.4361954 5.4953566 4
-42.223915 1.4135551 6.5559292 4
-42.134972 1.4254227 7.5717163 2
-42.126656 1.4108086 9.6695108 4
-42.135628 1.4578857 2.3530819 4
-42.254837 1.4214897 3.4095843 2
-42.189785 1.4167137 4.4190049 6
-42.137405 1.4179764 5.4316401 5
-42.09462 1.4473763 6.4502053 2
-42.146755 1.3757286 8.5358171 5
-42.092003 1.4814911 1.5338739 3
-42.194992 1.4246063 2.5898974 7
-42.173706 1.3885002 5.6646299 6
-42.117393 1.4056549 6.6835499 4
-42.097435 1.5378342 0.67611313 3
-42.026482 1.5017204 1.6882365 1
-42.143967 1.4756622 2.7430751 7
-42.128681 1.4207573 5.8292513 6
-42.088558 1.4840279 6.8569164 3
-42.174717 1.3919907 7.9252577 2
-42.105495 1.4128151 8.9570818 3
