# .PCD v0.7 - Point Cloud Data file format
VERSION 0.7
FIELDS x y z intensity
SIZE 4 4 4 4
TYPE F F F F
COUNT 1 1 1 1
WIDTH 709
HEIGHT 1
VIEWPOINT 0 0 0 1 0 0 0
POINTS 709
DATA ascii
-41.461639 -3.9982238 -0.40626806 8
-41.389954 -3.949151 -0.075943887 255
-41.354816 -3.9175906 -0.21808356 30
-41.290001 -3.9939466 -0.18898994 17
-41.347286 -3.9557006 -0.22409296 23
-41.340073 -3.9561729 0.03117919 255
-41.324142 -3.9785671 -0.16284323 34
-41.3167 -3.9688303 0.068015039 255
-41.363617 -3.9669447 -0.38375455 21
-41.354889 -3.9235716 -0.16868895 38
-41.347008 -3.957274 0.046508491 255
-41.337242 -3.9120343 -0.40426278 32
-41.338806 -3.9425354 -0.19211423 31
-41.332058 -3.9344692 0.01727879 255
-41.317894 -3.9617043 -0.38138938 34
-41.313545 -3.9595408 -0.18557477 37
-41.340088 -3.9927459 -0.33072078 18
-41.345551 -3.9863799 -0.13941896 24
-41.314537 -3.9431059 0.053238269 255
-41.298626 -3.9670112 -0.3632496 40
-41.303375 -3.9658153 -0.17671055 36
-41.304977 -3.9643636 0.01116687 44
-41.295376 -3.9620314 0.20031518 255
-41.441406 -3.9224153 -0.061315238 255
-41.284355 -3.9334078 0.15114748 27
-41.390507 -3.9588697 -0.39149737 36
-41.398865 -3.9800458 -0.24047762 24
-41.386166 -3.9730353 -0.09040606 212
-41.388397 -3.940285 0.058346871 43
-41.364815 -3.9359636 -0.29835898 32
-41.351158 -3.9367089 -0.078973949 255
-41.348923 -3.9380577 0.1367386 255
-41.315102 -3.9292836 -0.33581233 25
-41.298172 -3.9553094 -0.20030296 36
-41.291992 -3.9577887 -0.066146307 255
-41.305763 -3.9136262 0.06738919 235
-41.289768 -3.939533 0.20102674 255
-41.326141 -3.9824429 -0.30975103 36.5
-41.315037 -3.9788525 -0.11983836 255
-41.316338 -3.9757829 0.068182893 255
-41.32489 -3.959157 -0.30797893 38.5
-41.318047 -3.9622967 -0.09218365 144
-41.319557 -3.9654293 0.1213693 149
-41.333019 -3.922935 0.27881324 45
-41.293411 -3.9355037 -0.34221655 29
-41.291939 -3.9558058 -0.19984317 39.5
-41.283531 -3.9686079 0.035070781 185.33333
-41.289288 -3.9852552 0.22068748 209
-41.313725 -3.9614818 -0.41388857 36
-41.314293 -3.9656405 -0.23215979 40.5
-41.312637 -3.9934058 -0.04973286 186.5
-41.320068 -3.9892271 0.12735307 134
-41.450672 -3.9338374 -0.35610843 35
-41.445927 -3.928762 -0.22430563 39
-41.454365 -3.9293933 -0.05197287 148.5
-41.450459 -3.9622493 0.078456759 48
-41.449757 -3.9418306 0.20615441 149.5
-41.324261 -3.9801106 -0.3510232 38.5
-41.325897 -3.9685805 -0.22710317 33
-41.316425 -4.0245519 -0.14095479 31
-41.326225 -3.9777017 -0.061794762 44
-41.318531 -3.9882832 0.062088069 140
-41.312237 -4.0129867 0.18513858 90
-41.334427 -3.9665065 -0.32381606 15.5
-41.328915 -3.9523013 -0.29817343 16
-41.300846 -3.9594805 -0.13004011 149
-41.309399 -3.9657495 0.052071031 83
-41.317116 -3.9856935 0.23354781 134
-41.447861 -3.9798303 -0.48930883 31
-41.451923 -3.9484086 -0.34934098 18
-41.432228 -3.9470618 -0.16925174 131.16667
-41.43322 -3.9692979 0.04045957 107
-41.352718 -3.9803138 -0.20272541 25.333334
-41.332767 -3.9219947 0.0035971401 39.333332
-41.337177 -3.9742889 -0.027886869 140
-41.32246 -3.9350603 0.20577896 188.66667
-41.331905 -3.9597533 0.33655512 32
-41.314381 -3.9576397 -0.25657612 14.75
-41.291481 -3.9714019 -0.07541424 154.75
-41.300064 -3.9617786 0.092617273 76.833336
-41.2952 -3.958797 0.24527764 138.25
-41.350658 -3.980231 -0.4287014 13
-41.336327 -3.9835651 -0.3014642 24.5
-41.328224 -3.9952078 -0.13910162 65.333336
-41.31398 -3.9742792 -0.059331771 146.39999
-41.308384 -3.9883704 0.11483246 135.5
-41.305676 -4.0225973 -0.39603728 26
-41.297554 -3.9887195 -0.24969143 27.25
-41.292809 -3.9944372 -0.067351043 100.66666
-41.296398 -4.0180216 0.1179226 12
-41.28339 -3.9760675 0.18195391 115
-41.290398 -3.9864178 -0.46414709 33
-41.301914 -4.0594749 -0.45658839 30
-41.290298 -3.9833205 -0.38069713 21.5
-41.300034 -4.0434499 -0.33357936 36.75
-41.288208 -4.0365787 -0.14818871 105.33334
-41.295128 -3.9674795 -0.1214366 28.833334
-41.287766 -3.9606442 0.045216981 67
-41.294533 -3.9168556 0.23874623 25
-41.30162 -3.9771645 0.38834232 33
-41.330357 -3.9136417 -0.22849625 24
-41.321045 -3.9816079 -0.19040531 60
-41.309185 -3.9154088 -0.0088938503 21
-41.287304 -3.9669199 -0.02245748 149.85715
-41.29697 -3.9541254 0.17589062 82.099998
-41.287914 -3.9349747 -0.15288728 13.333333
-41.352749 -3.9336505 -0.26106292 31.5
-41.369404 -4.0118899 -0.21515977 91.5
-41.369522 -3.9167185 -0.12830281 10
-41.352726 -3.9767644 -0.01237845 44.454544
-41.346882 -3.979316 0.16489875 95.85714
-41.314293 -3.947684 0.14928058 201
-41.453915 -3.9502494 -0.058708008 25.75
-41.461323 -3.9890213 0.00142765 15
-41.449837 -3.9848959 0.14825243 46.75
-41.43811 -3.9785626 0.32042187 115.4
-41.31945 -4.0201015 0.12078679 7
-41.284332 -3.9736152 0.32997787 7.5
-41.33984 -3.960165 0.15689024 51.07143
-41.372334 -3.9332108 0.23212636 12.5
-41.385647 -3.9288881 0.34057361 21.428572
-41.397747 -4.0970879 -0.13320148 255
-41.513344 -4.0684853 -0.35026491 6
-41.383629 -4.0287132 -0.19302574 12
-41.351059 -3.9899182 -0.22853255 33
-41.334915 -3.9919944 -0.21515644 30
-41.313751 -3.9754672 0.2503463 255
-41.375473 -4.0106401 -0.27865124 33
-41.374878 -3.9731469 -0.05812097 223
-41.382439 -3.9728565 0.16364121 255
-41.371643 -3.9828134 -0.40569896 31
-41.367764 -4.018723 -0.19189996 26
-41.372807 -3.9782703 0.020780619 37
-41.362038 -3.9736462 0.23620063 255
-41.308704 -3.9971321 -0.35830694 30
-41.30426 -4.0391932 -0.15793842 21
-41.289253 -3.9803472 0.24569863 255
-41.417408 -3.9924848 -0.2780304 27
-41.402126 -3.9982982 -0.082759619 40
-41.395405 -4.0051188 0.11314106 255
-41.416786 -3.9812894 0.30788493 26
-41.348282 -3.987015 -0.33419847 30
-41.351971 -3.9956582 -0.15796232 30
-41.352234 -3.9712076 0.020117279 101
-41.354 -3.9781039 0.19804549 29
-41.315502 -3.980551 -0.36223173 24
-41.315323 -4.0093184 -0.20798695 30
-41.311699 -3.9952898 0.02471721 29.5
-41.394314 -3.9831955 -0.29724991 28
-41.387333 -4.005044 -0.1470691 34
-41.392345 -4.0003285 0.00076066999 28
-41.393589 -3.9833131 0.22172606 27
-41.363228 -3.9885492 -0.46504128 27
-41.374954 -3.9890265 -0.33696437 34
-41.363358 -3.9984012 -0.14058638 147
-41.35746 -3.9840922 0.054615259 255
-41.357922 -4.007515 0.18351054 255
-41.350281 -3.9786954 -0.21947068 30
-41.335293 -3.9652777 0.02951115 255
-41.352139 -3.9661195 0.21354651 113
-41.348694 -3.964108 0.33715177 42
-41.352489 -3.9539614 -0.24613881 26
-41.350224 -3.9625938 -0.078010201 33
-41.346218 -3.9706178 0.14499044 147.5
-41.334953 -3.9684675 0.31208134 255
-41.348061 -4.0051012 -0.35392177 32
-41.353897 -4.0018411 -0.24883056 31
-41.355209 -3.9804082 -0.14384639 35
-41.334892 -3.9843714 0.016052371 255
-41.357407 -3.9808831 0.22275132 136.5
-41.283569 -3.992456 -0.34497106 37
-41.369751 -3.9800553 -0.31654119 36.5
-41.364197 -3.9960637 -0.095813267 182.66667
-41.362591 -3.9872613 0.12098825 141.5
-41.372086 -3.9855094 0.24959049 45
-41.302097 -3.9947674 -0.32559991 33.5
-41.301941 -4.0054331 -0.11425543 127.66666
-41.293411 -4.0040131 0.09515214 148.5
-41.301285 -3.9996102 0.259179 141
-41.295601 -3.9737999 -0.28660387 33.5
-41.299118 -3.9743638 -0.16822302 32
-41.288757 -3.9883375 -0.04906195 148
-41.290436 -3.9746318 0.14364004 173
-41.288704 -3.9615791 0.29653585 255
-41.510136 -4.0942502 -0.49653083 12
-41.419029 -3.9145832 -0.29085666 9
-41.38839 -3.9676013 -0.31796187 32
-41.394547 -3.9170835 -0.21531802 11
-41.390121 -3.9662759 -0.14807081 39
-41.367908 -3.9448228 0.05700523 183.33333
-41.393101 -3.920903 0.31279552 20
-41.371986 -3.9355438 0.21870953 149
-41.455528 -3.9502933 -0.35293287 10
-41.425827 -3.9544613 -0.2139293 14
-41.427067 -4.0284901 -0.21555299 21.666666
-41.415424 -3.9546828 0.0097245602 97
-41.404758 -4.0216498 -0.02024788 202.33333
-41.422993 -3.9513986 0.13157916 131.5
-41.41853 -4.022244 0.13110197 120.5
-41.414543 -3.9547122 0.25467151 138
-41.411945 -4.0195084 0.25374633 127.5
-41.411007 -3.9398005 -0.25578862 28
-41.412178 -4.0182157 -0.26031989 16.5
-41.385662 -3.9392059 -0.093235433 56.25
-41.390415 -4.0242157 -0.099362433 93.75
-41.398407 -3.9364495 0.10091269 35.25
-41.394928 -4.0066471 0.097492158 99.5
-41.384815 -3.9432473 0.27048001 105
-41.391163 -4.006557 0.26510087 97
-41.519154 -4.0306292 -0.19167536 74.777779
-41.506794 -4.0315685 0.00697798 134.5
-41.375706 -3.9986007 -0.10486341 42.599998
-41.370144 -4.0275621 0.090447903 151
-41.349339 -3.9744673 0.13611364 90.5
-41.379791 -4.0319891 0.23519701 16
-41.377922 -3.9551482 0.24047297 4
-41.307255 -4.0527468 -0.065019131 68
-41.31823 -4.0467196 -0.026539391 25
-41.30513 -4.0440478 0.076242328 118
-41.325748 -3.9802508 0.1683619 10.333333
-41.312572 -4.0302658 0.15402159 22
-41.353218 -3.9889114 0.20766795 28.266666
-41.408863 -3.9927876 0.2772131 7
-41.297401 -4.0295067 -0.0056496901 36
-41.296608 -4.0132952 -0.18762445 8
-41.327644 -3.9638243 -0.4050917 31
-41.461208 -3.9418583 -0.34459108 30
-41.432278 -3.9415131 0.2642042 255
-41.303581 -3.98668 -0.4246332 29
-41.364059 -3.9714518 -0.50420952 10
-41.412163 -3.9322023 0.059050351 255
-41.375843 -3.9322886 -0.12902907 255
-41.294964 -3.932034 -0.46669114 21
-41.288719 -3.9835303 -0.49527174 15
-41.303223 -3.9842715 -0.44675958 24
-41.286209 -3.9638572 0.03397226 255
-41.288361 -3.9735465 -0.47380465 34
-41.289738 -3.9872394 -0.14830443 255
-41.316208 -3.9433994 -0.089260578 255
-41.430534 -3.9270587 -0.35241878 16
-41.34005 -3.9204273 -0.24866468 26
-41.388893 -3.9299884 -0.21649039 22
-41.320076 -3.9448643 -0.48527843 12.333333
-41.338844 -3.9509315 -0.18729287 31
-41.324627 -3.9444475 0.20284623 255
-41.437119 -3.9183803 -0.24225849 32
-41.319199 -3.9409919 -0.21644098 38
-41.291004 -3.9553738 -0.28093559 33
-41.304363 -3.9413562 -0.24575847 28
-41.289413 -3.9638987 0.097336113 80
-41.299797 -3.9316475 0.24018937 43
-41.395264 -3.923161 0.062556803 255
-41.318642 -3.9908712 -0.29183218 23
-41.302284 -3.9495597 0.01224044 255
-41.409843 -3.926168 -0.36928129 20.5
-41.348099 -3.9468286 -0.073837221 135
-41.463673 -3.9781833 -0.46212548 10
-41.47847 -3.9282823 -0.37186092 24.5
-41.454544 -3.947175 -0.12013656 255
-41.371742 -3.9750428 -0.44326746 23
-41.365448 -3.9526134 -0.1956687 37
-41.34848 -3.9513657 0.052156691 255
-41.33564 -3.9679289 -0.39472622 27
-41.328568 -3.9331126 -0.04919881 139
-41.354866 -3.9461203 -0.13595819 35
-41.343231 -3.9419067 0.20507407 255
-41.375076 -3.9640484 -0.16946536 19
-41.346672 -3.9188826 0.04598349 255
-41.337791 -3.949945 -0.40328336 27
-41.337658 -3.9275253 0.22729778 41
-41.318214 -3.978199 -0.28362823 16
-41.304985 -3.9465508 0.10848832 230.5
-41.333572 -3.9546742 -0.23549068 68.5
-41.322609 -3.9564085 0.14909804 145
-41.32375 -4.0027184 -0.36569422 16
-41.316654 -3.9325511 -0.083775342 22.5
-41.320602 -4.0007691 -0.17802888 11
-41.293907 -3.9286561 0.2002303 255
-41.491318 -3.9408977 -0.52106565 10.833333
-41.467731 -4.1016593 -0.46330357 8.666667
-41.336929 -3.9149559 -0.46173251 17
-41.394814 -3.93648 -0.16707295 106.75
-41.387276 -3.9570956 0.13436604 31.5
-41.364944 -3.9684694 -0.29881138 29.25
-41.359245 -3.9681835 0.063830547 225.5
-41.384785 -3.9624133 -0.34579813 23.25
-41.314011 -3.9561095 -0.20210361 26.5
-41.301636 -3.9596844 -0.00030017001 255
-41.299545 -3.9558523 0.20005286 226
-41.465195 -4.0293565 -0.39451152 13.294117
-41.485004 -3.9248884 -0.52354836 11.555555
-41.335888 -3.9813852 -0.37411475 25.833334
-41.323833 -3.977139 0.0048583099 255
-41.328442 -3.9555104 0.1736446 114.22222
-41.33717 -4.0105023 -0.39664078 21.700001
-41.291424 -3.9482412 -0.059952199 111.71666
-41.285229 -3.9439762 0.21982914 255
-41.301308 -4.0501122 -0.33664757 15.795454
-41.305515 -3.9360685 0.03610694 174.75
-41.303921 -3.9765124 0.083501339 180.33333
-41.460136 -3.9534719 -0.31358063 26.46875
-41.340321 -3.946372 -0.31428009 61.067772
-41.372131 -4.050499 -0.48399836 14
-41.322948 -3.9667318 0.060481369 143.75
-41.312256 -3.9686389 -0.24383062 78.113327
-41.309315 -3.9573898 0.12395889 122.56999
-41.427551 -3.9484551 -0.23884815 156.56
-41.428574 -3.9287536 0.03700316 112.9
-41.341881 -3.9621875 -0.27097678 36.325653
-41.326591 -3.938091 0.10567194 146.93333
-41.334339 -3.9244573 0.33449772 37.599998
-41.295715 -3.9668715 -0.22022176 76.504395
-41.286354 -3.9619341 0.15581179 134.08
-41.370808 -4.0226173 -0.40303677 42.985645
-41.323502 -4.009099 -0.1470921 153.75
-41.307491 -3.9861383 -9.9299999e-05 168.92381
-41.288982 -4.019043 -0.13317287 64.199997
-41.508884 -3.9588988 -0.21790439 9.5
-41.290638 -3.9589264 -0.09113729 161.80103
-41.296257 -3.9527025 0.17571771 144.65714
-41.345493 -3.9777415 -0.23103237 129.68777
-41.344929 -3.9738116 0.053569611 141.35745
-41.427235 -3.9875522 0.015817109 205.5
-41.430107 -3.9305577 0.22012645 118.95166
-41.431019 -3.9739966 0.25047553 183.43124
-41.403358 -3.9258411 0.29276586 198.375
-41.408592 -3.9654334 0.31125581 255
-41.369175 -3.9739666 -0.06871289 5.5
-41.34211 -3.9595399 0.16771406 123.48415
-41.385468 -3.9199204 0.3433134 48.471073
-41.366646 -3.9530954 0.24569726 0
-41.428806 -3.9701061 -0.21904129 18
-41.393196 -3.9710617 -0.35335356 18
-41.378189 -3.9985542 0.0096517196 255
-41.343067 -4.0804386 -0.029839041 125
-41.425728 -4.0242367 -0.18299872 136.5
-41.398224 -4.0292053 -0.11096931 12
-41.444801 -4.0447445 -0.13774645 133.5
-41.472607 -3.9957256 -0.1194874 142.5
-41.483887 -3.9746876 -0.48245162 21
-41.494205 -3.9538879 0.041783631 54
-41.305504 -4.0205688 -0.33326268 12
-41.334946 -4.0383396 0.19834352 255
-41.342781 -4.0645752 -0.05191559 255
-41.438885 -4.0238991 0.070343614 153.5
-41.337593 -4.0194492 -0.35423386 15
-41.338707 -3.9988384 0.1833533 83
-41.404762 -4.0148983 -0.31360269 20
-41.511314 -4.0245285 0.00177085 171
-41.434406 -3.9965744 -0.13264519 136.5
-41.323456 -4.0706177 -0.37444705 6
-41.32272 -3.9824085 0.18871671 26
-41.327995 -3.983984 0.26132083 5
-41.439453 -4.0225201 0.060725208 0
-41.319962 -4.0290718 0.03285617 1
-41.436371 -4.0171223 0.041591819 185
-41.425041 -4.0371284 -0.35791957 8
-41.448849 -4.0225258 -0.4444108 6
-41.479374 -4.0199928 0.029122351 28
-41.365364 -4.0785713 -0.3361662 13
-41.49511 -4.0251617 -0.041014731 36
-41.407627 -4.041748 0.05525982 41
-41.43013 -4.0211868 -0.43330485 21
-41.461235 -3.9992409 -0.33377457 5
-41.418468 -4.0140686 -0.45521772 19
-41.356956 -3.9969635 0.17460883 133.5
-41.309422 -4.0149498 0.16284877 19
-41.404743 -3.9317131 -0.23329759 11
-41.43066 -4.0543861 0.10787123 7
-41.423462 -4.0177307 0.13774753 129
-41.304813 -3.963089 0.074649751 134
-41.331284 -4.0264091 -0.22999322 2
-41.285557 -4.0212364 0.10622716 8
-41.446491 -4.0204811 0.13835323 255
-41.348022 -4.0153694 0.075175881 2
-41.482105 -3.9715767 0.2509445 3
-41.453735 -3.9826088 0.3848682 13
-41.430088 -4.0012817 -0.33174396 23
-41.356339 -4.0534744 0.070493102 255
-41.429668 -3.9386482 -0.38411033 19
-41.334377 -3.9378471 -0.4399938 13
-41.337257 -4.0650558 0.10605454 255
-41.440384 -4.0511131 0.1956917 67
-41.382515 -4.042202 -0.44126332 23
-41.459446 -4.0122032 0.14974689 66
-41.401573 -4.0028152 -0.10508335 21
-41.355331 -4.0534821 0.21752977 17
-41.380547 -4.0339699 -0.23428035 255
-41.352318 -4.0105438 0.00718319 15
-41.510571 -3.9900131 0.044981841 255
-41.320446 -4.0425568 0.1600135 228
-41.323925 -4.0384941 -0.13780338 145
-41.366093 -3.9781151 -0.45105243 20
-41.32399 -4.0880051 -0.32262087 13
-41.422203 -4.0204926 -0.21106464 112
-41.345413 -4.02005 0.1561113 17
-41.500797 -3.9635582 0.19913012 255
-41.378105 -4.0471992 0.0099261403 128
-41.459976 -4.0337257 -0.48986167 18
-41.452648 -3.9666443 -0.28280181 16
-41.358124 -4.0675316 -0.13132274 255
-41.431152 -3.9216537 -0.48118341 4
-41.32214 -4.0237961 0.10668844 17
-41.481621 -4.0190468 0.14498276 255
-41.338722 -3.9967308 -0.07224828 9
-41.496571 -3.9762154 -0.030994119 255
-41.395908 -4.0338211 -0.13765776 106
-41.288864 -4.0260811 -0.039832059 116.5
-41.309204 -4.0463982 0.050672229 134
-41.293919 -4.0378609 -0.00251019 15
-41.454914 -4.0170746 0.02463132 255
-41.49279 -3.9868507 0.13650948 21
-41.484806 -3.9660797 -0.11726749 139
-41.281025 -4.0805168 0.096897364 255
-41.479668 -4.0211792 0.057719231 128
-41.493252 -3.9390907 0.02103949 28.5
-41.325031 -4.0108185 0.00962245 4
-41.485519 -3.9911575 0.20769721 9
-41.361088 -4.0580635 -0.17424268 244
-41.389954 -4.0186806 -0.26162517 19
-41.362225 -4.0084534 -0.048088372 21
-41.390503 -3.9800415 -0.22301716 21
-41.378571 -4.0579491 -0.16531277 255
-41.448895 -4.0296974 0.32504022 138.5
-41.296684 -4.005558 -0.15795088 10
-41.452736 -4.0348816 -0.11488223 255
-41.471428 -4.0480766 -0.11075824 255
-41.517914 -4.0503159 0.34554857 255
-41.300335 -4.0585251 0.16772479 255
-41.335155 -4.0651436 0.050085429 255
-41.382301 -4.0416718 -0.074625611 255
-41.409901 -4.0366554 -0.18224788 237
-41.36087 -4.0609703 0.14057285 255
-41.385201 -3.9183311 -0.4900316 17
-41.372917 -4.0380478 0.20455605 255
-41.362415 -4.0215874 -0.22423238 21
-41.379986 -4.0289879 0.039536182 77
-41.39949 -4.0771599 -0.20647281 255
-41.508881 -4.0598946 -0.0213896 255
-41.485104 -4.0098763 -0.21833026 19
-41.534058 -4.0859795 0.0192855 255
-41.445007 -4.0612717 -0.51508462 16
-41.323009 -4.0520706 0.11160779 255
-41.346138 -4.0490456 0.016709801 255
-41.382042 -4.0992165 0.23740762 255
-41.287544 -4.0463257 0.08329314 255
-41.52338 -4.1067085 -0.2458024 3
-41.290325 -4.0252838 -0.02580416 255
-41.358547 -4.094841 -0.15974128 15
-41.304573 -4.0236702 -0.2734127 255
-41.366188 -4.0652046 -0.036784291 255
-41.401779 -4.0153694 -0.45034575 21
-41.409958 -4.0179634 -0.35576296 20
-41.348236 -3.961689 -0.36191285 21
-41.368317 -3.9821205 -0.42031348 23
-41.307468 -4.0456963 -0.17229509 255
-41.400215 -4.0773354 0.21725643 255
-41.304249 -4.0147171 -0.13167179 255
-41.422626 -4.0615387 -0.27859461 18
-41.295673 -3.9873581 -0.17516601 103
-41.320503 -4.0233231 0.080510497 255
-41.382511 -4.0900078 -0.076201797 255
-41.332092 -4.0396042 0.063068151 255
-41.372353 -4.050808 0.19389969 104
-41.465027 -4.1059227 0.04728293 16
-41.409386 -4.0814629 0.14931923 112
-41.453583 -4.001133 -0.30680418 19
-41.412613 -4.0608902 -0.088117719 21
-41.3246 -3.965538 -0.19930792 13
-41.348511 -3.9796104 0.22291529 27
-41.421169 -3.9278641 -0.43552661 3
-41.468895 -4.1072655 -0.44047642 5
-41.51302 -4.116169 0.17836404 2
-41.432083 -4.1101952 0.26226985 1
-41.458549 -4.0921555 0.26757133 3
-41.443039 -4.0812798 -0.04654276 135
-41.381592 -4.0222015 -0.12952447 6
-41.501366 -4.117878 -0.058895111 118
-41.472107 -4.1168823 0.01759815 255
-41.341263 -4.0487976 -0.053812739 255
-41.463554 -4.114357 -0.15168196 255
-41.407322 -4.0869331 -0.28446293 99
-41.427326 -4.1064606 -0.16450024 255
-41.368538 -4.0496254 -0.15365922 38
-41.521538 -4.081089 -0.51741767 23
-41.434143 -4.073246 -0.2967205 19
-41.409801 -4.0688095 -0.53812873 15
-41.406952 -4.0728912 -0.22510475 19
-41.431244 -4.0226974 -0.35001057 19
-41.391495 -4.0995483 -0.27021897 255
-41.382095 -4.0844727 0.058084492 255
-41.389751 -4.0724564 0.0039974502 139
-41.393589 -4.0372849 -0.26829815 20
-41.435574 -4.0990944 -0.0748564 255
-41.408714 -4.0794029 -0.20747226 255
-41.479008 -4.0269699 -0.5023663 4
-41.475822 -4.1107407 -0.10635614 44
-41.49807 -4.1213989 0.30785942 7
-41.416466 -4.0912399 0.075000294 255
-41.464783 -4.0861855 0.029581189 16
-41.29697 -4.0177956 -0.13246047 50
-41.411724 -4.0941429 0.17245495 122
-41.484634 -4.0917053 0.19513667 5
-41.373909 -4.0723114 -0.17782629 4
-41.419491 -4.0840416 -0.12679517 45
-41.34613 -4.0021553 -0.15329766 6
-41.416718 -4.0763969 0.26474416 255
-41.305813 -3.9931641 -0.1624608 6
-41.289421 -4.0354805 -0.34433722 54
-41.529629 -4.0601044 -0.55467308 20
-41.519234 -4.0654793 -0.44541705 7
-41.321064 -4.0155907 -0.13492212 19
-41.36198 -4.0777016 -0.20238584 20
-41.291191 -3.9912071 -0.48585281 9
-41.525841 -4.0554276 -0.52148312 3
-41.353107 -3.9155083 0.086573929 4
-41.384056 -4.0194473 -0.11855401 16
-41.303123 -3.9745712 -0.24449389 7
-41.313759 -4.0314579 -0.20331247 11
-41.308548 -3.9912376 -0.44873962 134
-41.28624 -4.0550251 -0.050186832 143
-41.425308 -4.0021076 -0.41997385 3
-41.358063 -4.076828 -0.25828177 20
-41.302021 -4.0459042 -0.535914 23
-41.336514 -4.0748177 -0.055228852 255
-41.302952 -4.0075245 -0.12554868 15
-41.354576 -4.0600419 0.087796457 255
-41.348228 -4.0751734 -0.17560144 9
-41.466961 -4.0140262 -0.3589592 2
-41.401741 -3.9782345 0.14141548 109
-41.314243 -4.0843296 0.18719745 125
-41.295227 -4.040844 -0.10107376 10
-41.309845 -4.0277271 -0.10479995 5
-41.3074 -4.0448599 -0.1169242 6
-41.368385 -3.9744201 0.2822229 194
-41.293121 -4.0663853 0.0026284801 20
-41.383438 -4.0618916 -0.21806622 31
-41.399933 -4.0283051 0.2859087 40
-41.282848 -4.072958 -0.063135266 148
-41.383999 -4.0574942 -0.38371837 19
-41.360344 -4.0445051 0.0076423902 255
-41.383301 -4.0377388 -0.40162766 16.5
-41.360718 -4.0561209 -0.02782047 209
-41.316658 -4.0460773 -0.17374611 21
-41.30481 -4.0359206 0.17035079 255
-41.52639 -4.084157 -0.43772829 10
-41.366077 -3.9992876 -0.099604487 255
-41.362045 -4.0002184 0.22897136 255
-41.407711 -3.989713 -0.33249027 31
-41.391537 -3.9812198 -0.0076602101 255
-41.405479 -3.9763954 0.31876677 207
-41.432907 -4.0141654 -0.25539237 30
-41.422405 -4.0283279 0.052539531 39
-41.335617 -3.9180908 -0.22022605 19.333334
-41.313934 -3.9886146 0.2357161 49
-41.318275 -4.0166578 -0.15022707 32
-41.308556 -4.0056581 0.120538 255
-41.357727 -4.0359306 -0.22958016 16
-41.34087 -4.0043139 0.15382528 234.25
-41.30962 -4.0095921 0.13261116 149
-41.376854 -4.0399928 -0.16895795 130.25
-41.362434 -4.0086923 0.16388321 255
-41.386639 -3.9838398 -0.30029482 24
-41.371185 -4.0137587 0.12869483 141.5
-41.332989 -4.0608168 -0.47602689 11.333333
-41.300583 -4.03197 -0.35914737 29
-41.304783 -4.0085602 0.044192851 241
-41.409813 -4.0295811 -0.18186021 26
-41.407158 -4.0102038 0.20963335 145.5
-41.298035 -4.013195 -0.31954205 10.5
-41.359547 -4.0314722 -0.24888444 20.25
-41.34885 -4.012845 0.10766554 111.75
-41.296185 -4.0209303 -0.30843437 11
-41.318825 -3.9956806 -0.23127955 98
-41.316193 -4.0003648 -0.053115249 25.5
-41.435032 -3.918726 -0.45202339 11.428572
-41.37928 -4.0099363 -0.36934578 26.928572
-41.404919 -3.9932468 -0.14926362 20.833334
-41.385647 -3.9824417 0.22212064 29.5
-41.376953 -3.9898696 -0.46684873 21.25
-41.412117 -4.0149179 -0.27677995 79.875
-41.367832 -3.9626131 0.11855125 201
-41.347263 -3.9723639 0.18394434 255
-41.338634 -3.9818027 -0.27997494 24.156862
-41.349461 -3.9663405 0.089990623 184.33333
-41.358608 -3.9432523 0.33660316 24
-41.350132 -3.9671025 -0.18981004 23.083334
-41.350258 -3.9661496 0.19996446 155.58333
-41.353989 -4.0347137 -0.40826118 18.788462
-41.368767 -3.9992902 -0.19834864 20.25
-41.350647 -3.9837494 -0.038346529 179.66667
-41.345516 -3.9799953 0.22368291 144.66667
-41.344975 -4.0791068 -0.40490305 20.475
-41.286098 -3.9896023 -0.064082742 120.06667
-41.356953 -3.9196768 -0.40213192 19.463392
-41.374325 -3.9814227 -0.01077086 125.19
-41.381821 -3.9757316 0.24859616 33.333332
-41.309231 -3.99788 -0.032434579 104.68001
-41.300858 -3.9977634 0.25918266 134.75
-41.360023 -4.0503612 -0.2246775 20.830002
-41.296326 -3.9876533 -0.089585721 108
-41.296791 -3.9928937 0.18070912 173.1875
-41.292557 -4.0391426 -0.28823358 74.776001
-41.423981 -4.069623 -0.36723846 31.283155
-41.391766 -3.9186654 -0.035885751 97
-41.378887 -3.9554434 -0.045235749 110.58334
-41.389614 -3.9179828 0.21653813 134.5
-41.378677 -3.9565239 0.24933708 111.1
-41.340836 -3.9797425 -0.41245943 33.344074
-41.404984 -3.9918549 -0.11448622 144.55714
-41.406357 -3.9872487 0.19456732 150.09999
-41.359421 -4.0716195 -0.41334128 14.419544
-41.318848 -3.9668608 -0.37607354 37.927757
-41.386414 -3.9755507 0.0029413099 137.77797
-41.384792 -3.9765835 0.268251 133.16667
-41.501919 -4.0168662 -0.475007 76.050003
-41.508453 -4.0346036 -0.10492808 188.66428
-41.52409 -4.0238533 0.11218959 68
-41.368546 -4.0014577 -0.10181618 135.93944
-41.360588 -4.000731 0.1317659 177.24364
-41.29668 -4.0496678 -0.060084701 171
-41.33102 -4.0068512 0.05687717 42.933334
-41.312542 -4.0361376 -0.0098397704 69.416664
-41.294567 -3.9914885 0.065783054 124.49272
-41.286697 -4.0325074 0.05099136 217.5
-41.355961 -3.9892063 0.21260214 107.04402
-41.297611 -3.9980214 0.23252901 2
-41.369789 -4.0392761 -0.03303653 12
-41.328217 -4.0269718 -0.31479108 9
-41.504215 -4.0219078 -0.12013865 129
-41.354515 -4.0696869 0.031629741 139
-41.423088 -4.0647926 0.042243779 21
-41.407242 -4.0108452 0.02285975 2
-41.324398 -4.0361671 -0.01189679 12
-41.351486 -4.0449371 -0.16853446 130
-41.391155 -4.0375061 -0.038861569 132
-41.393555 -4.0376167 0.11033839 255
-41.508579 -4.0213089 0.096640877 12
-41.38623 -4.013504 0.20298046 5
-41.452087 -4.0259132 0.10617888 255
-41.477734 -3.9574814 -0.37096536 18
-41.388092 -4.0293427 0.14513868 145.5
-41.340267 -4.0380325 0.14140379 17
-41.429497 -4.0279121 0.24125564 3
-41.42733 -4.028965 0.13794541 255
-41.434883 -4.0309219 0.10307139 255
-41.389946 -4.0272522 0.070289552 203
-41.382168 -4.0420189 0.19100684 55
-41.496746 -4.0465393 -0.4983741 11
-41.403046 -3.9467049 -0.38790804 13
-41.512016 -4.0259514 0.18204862 21
-41.516899 -4.0161209 -0.02639222 40
-41.461605 -4.0359459 -0.10840034 255
-41.460396 -4.0255241 -0.20181525 123
-41.388489 -4.0321198 -0.18374091 12
-41.413773 -4.0425682 -0.17171133 120
-41.431782 -3.9928246 -0.20167214 2
-41.461155 -4.0440979 0.0279004 255
-41.521942 -4.0333862 0.0057955999 255
-41.413307 -4.0126266 0.059442699 43
-41.46944 -3.9925156 -0.43980938 20
-41.325199 -4.039753 0.08324784 255
-41.339794 -4.0383377 -0.11804712 140.5
-41.45068 -3.9581528 0.23980319 1
-41.45892 -4.0099487 -0.2570318 9
-41.464699 -3.9170265 -0.34331137 16
-41.421844 -4.0437126 -0.14766037 255
-41.429523 -4.0425377 -0.086344123 255
-41.40617 -4.0495834 -0.00719237 255
-41.443138 -4.0449219 -0.12924355 112
-41.470963 -3.9834938 -0.33331937 21
-41.518887 -4.0031776 0.16113579 78
-41.281898 -4.0379181 -0.17788386 13
-41.441551 -4.0468941 -0.15044475 255
-41.509274 -4.0195808 -0.01663786 255
-41.442417 -4.0269127 -0.39190757 129
-41.385464 -4.0455971 0.040400151 143
-41.498291 -4.0244446 0.10832423 7
-41.29414 -4.0513191 0.031378981 174
-41.431896 -4.0382767 -0.20453006 22
-41.496449 -4.0286865 -0.3094967 22
-41.458061 -4.0724945 0.29508483 255
-41.499954 -4.0304565 -0.24811625 30
-41.370281 -4.064312 -0.21849227 255
-41.310162 -4.0513496 -0.095513582 255
-41.460655 -4.0547562 -0.14442134 255
-41.335808 -3.9267464 -0.14984077 17
-41.296371 -4.0505714 -0.10509598 100
-41.407616 -3.9492035 -0.38907683 12
-41.430614 -3.9382515 -0.31941497 15
-41.289825 -4.0193272 -0.2358769 19
-41.285271 -4.0855751 -0.18933296 5
-41.285847 -4.0260077 -0.14238635 131
-41.319199 -3.9960756 -0.50365323 2
-41.332649 -4.0944071 0.11652198 255
-41.309898 -4.0531144 -0.46823469 14
-41.294128 -4.0235825 -0.15186757 19
-41.295334 -3.9612112 0.30687812 75
-41.285633 -3.9723494 -0.15501812 10
-41.290276 -3.9808028 -0.18409237 16
-41.285301 -3.9410834 -0.09691567 118
-41.326164 -3.961484 -0.22435571 6
-41.291607 -3.9154477 -0.15593162 13
-41.296623 -3.957099 -0.2511732 9
-41.289268 -3.9394419 -0.21369995 14
-41.284733 -3.9290652 -0.12372033 14
-41.295448 -3.9777155 -0.11646765 11
-41.2934 -3.9308338 -0.38860711 7
-41.285622 -4.000917 -0.10459676 6
