# .PCD v0.7 - Point Cloud Data file format
VERSION 0.7
FIELDS x y z intensity
SIZE 4 4 4 4
TYPE F F F F
COUNT 1 1 1 1
WIDTH 1375
HEIGHT 1
VIEWPOINT 0 0 0 1 0 0 0
POINTS 1375
DATA ascii
-12.266386 5.4439583 5.3707147 255
-12.728195 5.3996811 5.448627 151
-13.040577 5.439167 5.512383 5
-11.402315 5.3998299 4.7067504 255
-11.951008 5.4160957 4.8094392 255
-12.282578 5.4170647 4.8705974 255
-12.511421 5.3983994 4.9101682 255
-12.735058 5.3898354 4.950397 255
-12.942362 5.4170151 4.9929881 255
-11.320971 5.503746 4.7540441 140.5
-11.621859 5.5800323 4.8161845 255
-12.188204 5.5581741 4.9106135 255
-12.640421 5.535923 4.9859042 255
-13.075598 5.5470161 5.0634732 255
-11.409933 5.5234375 4.9524422 255
-11.942499 5.5698891 5.0559425 255
-12.16497 5.5651932 5.0959044 255
-12.497318 5.5583458 5.1559057 255
-12.935886 5.5551033 5.2364035 255
-11.43498 5.4374428 5.3229237 255
-11.874924 5.4306374 5.4130554 255
-12.19651 5.4406662 5.4818382 255
-11.413116 5.3753471 4.8706288 255
-11.730965 5.3920631 4.9459052 255
-12.278418 5.3731651 5.0684047 255
-12.711189 5.3636818 5.1668248 255
-13.10495 5.4411545 5.2714877 134
-13.012283 5.4451561 4.669488 255
-11.258717 5.4698257 5.5025072 104
-12.875597 5.5735397 5.4459085 255
-13.192951 5.5783157 5.5148859 255
-11.389105 5.5284729 5.1235561 255
-11.906664 5.5823174 5.2410822 255
-12.121363 5.5842056 5.2868156 255
-12.560923 5.5598907 5.3763638 255
-12.613539 5.698288 5.3060112 255
-13.253056 5.6951065 5.4405985 255
-11.462429 5.6250572 5.0548458 135.5
-11.746164 5.718689 5.1281357 255
-12.177275 5.7174187 5.2176352 255
-12.396324 5.7064133 5.261713 255
-12.814968 5.4744759 4.6506329 255
-13.110081 5.5208588 4.7338219 255
-11.280457 5.4988861 5.4951773 47
-11.67314 5.3524895 5.3900342 255
-12.100468 5.344101 5.4935298 255
-11.455929 5.3628273 5.3387475 255
-12.481997 5.3425941 4.7394209 255
-12.79348 5.3549576 4.8183222 255
-13.101643 5.3732338 4.8976345 255
-11.831417 5.3751755 4.5851221 20
-12.05372 5.3528481 4.6358843 176
-12.272585 5.3370438 4.6870012 255
-13.043831 5.5885239 5.5245352 7
-11.355608 5.5499611 5.1423941 255
-11.650352 5.6148529 5.2179213 255
-12.068363 5.6388779 5.3145008 255
-12.615822 5.6009941 5.4304838 255
-12.388651 5.6374893 5.385622 255
-13.265503 5.5795784 4.9281535 255
-11.667404 5.5875854 4.5804806 160.5
-11.987123 5.5917358 4.6503596 255
-12.203007 5.5860825 4.6964359 255
-12.739347 5.5739899 4.8117299 255
-13.056656 5.5742188 4.8813758 255
-12.080999 5.7124481 4.9533162 255
-12.401501 5.7070503 5.0211854 255
-12.830935 5.6898651 5.1110501 255
-13.148739 5.6843376 5.1789584 255
-11.562361 5.6767349 4.8375087 255
-11.862495 5.7261124 4.9087157 255
-11.279411 5.3974648 4.920495 255
-11.574783 5.4525375 4.9893332 255
-12.001865 5.4417229 5.0756655 255
-12.31987 5.4358559 5.1406517 255
-12.745905 5.41782 5.2267113 255
-13.050247 5.4393959 5.2938652 255
-11.423954 5.3812943 4.9680958 255
-11.634663 5.382679 5.0158501 255
-11.84819 5.3759232 5.063077 255
-12.379339 5.3592491 5.181201 255
-12.797741 5.3562927 5.2764931 255
-13.103603 5.3712769 5.3492565 255
-13.265415 5.4896126 5.405757 5
-11.856058 5.276165 4.9871378 255
-12.601128 5.2516479 5.1469765 255
-13.010866 5.2711411 5.2407236 255
-13.180601 5.3711357 5.2941494 8
-11.427843 5.636322 4.5945716 3
-11.579351 5.7512436 5.4200807 18
-11.899511 5.7407303 5.4755282 9
-12.824007 5.3673134 4.630156 255
-12.875301 5.2431068 4.7191792 255
-12.803509 5.5445747 5.4157329 255
-13.11031 5.5589638 5.4804339 255
-13.284143 5.6429176 5.5284171 8
-11.360775 5.5289726 5.1234517 255
-11.651421 5.5826836 5.189075 255
-11.965996 5.5712585 5.2503829 255
-12.278643 5.5620728 5.3119254 255
-13.149006 5.4815788 5.4015608 255
-11.40926 5.4777451 5.0111246 255
-11.811884 5.5044136 5.1045504 255
-12.227886 5.4908447 5.1953535 255
-12.538601 5.4806938 5.2635126 255
-12.948864 5.4732361 5.3549204 255
-12.767612 5.5124817 4.6347713 255
-13.062008 5.5424652 4.7074184 255
-11.309422 5.5692444 5.4890137 17
-12.731663 5.428463 4.6227679 14.5
-12.126657 5.4146271 5.0769157 255
-12.537575 5.403595 5.1652479 255
-13.040768 5.4121971 5.2774029 255
-11.317699 5.3868752 4.8973942 255
-11.714132 5.4246178 4.9886217 255
-12.322739 5.4311371 4.6354795 255
-12.626009 5.4349861 4.6991191 255
-13.029274 5.4387932 4.784059 255
-11.276073 5.3821678 5.3103905 154.5
-11.56311 5.4382477 5.374898 255
-11.972874 5.4355698 5.4553909 255
-12.390446 5.5413322 4.626689 255
-12.799314 5.5280342 4.7172785 255
-13.097469 5.539917 4.7866035 255
-12.360231 5.5610619 5.478209 255
-12.677711 5.525856 5.5278549 191
-11.351707 5.5129623 5.3013339 173.33333
-11.742952 5.5697517 5.3746004 255
-11.946281 5.5751076 5.4096923 255
-11.626654 5.4207268 5.0126543 255
-12.240921 5.4117012 5.1251092 255
-12.54987 5.3971214 5.1807728 255
-13.042738 5.4323921 5.2779403 171.66667
-11.32357 5.4096031 4.9555426 255
-11.397001 5.4679222 4.9575233 255
-11.69286 5.4934959 5.0201283 255
-12.218006 5.470768 5.1225305 255
-12.613485 5.4592628 5.200964 255
-12.914923 5.4577789 5.2620826 255
-13.308949 5.5103645 5.3499317 129.5
-11.668072 5.5892601 5.2216697 255
-11.97311 5.5816727 5.2815623 255
-12.373966 5.5840874 5.3624721 255
-12.576635 5.5766792 5.4023814 255
-12.885124 5.5489845 5.4611049 164.5
-13.180838 5.557827 5.5226026 7
-12.397081 5.4897499 4.6553082 6
-12.705479 5.4601402 4.7192159 139
-13.004805 5.4557037 4.7847419 255
-11.365213 5.5692406 5.3365154 135
-11.631062 5.6742477 5.3993626 255
-11.934553 5.6661339 5.4543543 255
-12.242596 5.641449 5.5082521 255
-11.302507 5.4498482 5.5158324 255
-11.40633 5.3276329 4.6276045 255
-11.905443 5.3328438 4.728797 255
-12.307547 5.3229446 4.8090401 255
-12.708834 5.3102646 4.8892446 255
-13.002813 5.3194809 4.9507051 255
-11.648666 5.5179024 5.0686264 255
-12.150047 5.505497 5.1738234 255
-12.347792 5.5068855 5.2163944 255
-12.846773 5.4901428 5.321578 255
-13.232187 5.5161057 5.4087267 130.5
-11.506449 5.510643 4.9517002 255
-11.902155 5.5196953 5.0309434 255
-12.301504 5.5127258 5.1092744 255
-12.704149 5.4896469 5.1866112 255
-13.001497 5.4839592 5.2455344 255
-13.089005 5.5921173 5.4309988 255
-13.270708 5.6377602 5.4733524 14
-11.326836 5.5652313 5.0812006 255
-11.605639 5.6228447 5.142827 255
-12.196503 5.6273117 5.2589283 255
-12.594387 5.6110039 5.3352375 255
-12.888145 5.6109238 5.3934755 255
-11.376493 5.4350014 4.7013364 255
-11.768759 5.4458046 4.7819448 255
-12.26597 5.4308395 4.8811507 255
-12.564907 5.4154549 4.9403706 255
-12.956301 5.4143372 5.0207324 255
-11.29888 5.388588 4.9461555 255
-11.686583 5.4046631 5.0353732 255
-12.083166 5.3875656 5.1224699 255
-12.37886 5.3766708 5.1880012 255
-12.769411 5.3700752 5.2760429 255
-13.05739 5.3787766 5.3431578 255
-13.221254 5.480835 5.3951025 5
-11.45166 5.5624657 4.8084183 255
-11.639557 5.588131 4.8539782 255
-11.935188 5.5794792 4.9193945 255
-12.328131 5.5675964 5.0066919 255
-12.624424 5.5497971 5.0716448 255
-13.107822 5.5491562 5.1820507 255
-11.376705 5.5577354 4.9244275 132
-11.751102 5.614418 5.0160623 255
-12.145184 5.6015778 5.1031351 255
-12.440655 5.58881 5.168272 255
-12.929333 5.5735207 5.2773819 255
-13.21884 5.5740166 5.3436327 255
-11.421873 5.6516914 5.2966099 41
-11.610313 5.6762085 5.3388348 222
-11.797598 5.7039223 5.3813663 255
-12.099739 5.671463 5.4399233 35.5
-12.49687 5.6424713 5.5191202 4.5
-11.302389 5.4479485 5.1489329 255
-11.685768 5.4795685 5.2131581 255
-11.980759 5.4758606 5.2595744 255
-12.179386 5.4648323 5.2899871 255
-12.670628 5.4495621 5.3672137 255
-13.057653 5.452877 5.4304538 255
-11.503828 5.4102402 5.0533791 255
-12.091845 5.3903542 5.1658506 255
-12.381628 5.3906975 5.2229929 255
-12.579313 5.3734169 5.2599068 255
-12.963272 5.3752708 5.3365288 255
-13.229424 5.4538193 5.3999128 14
-12.198555 5.3955498 5.4309464 255
-12.489647 5.3901367 5.4892831 255
-11.610682 5.4170532 5.3153753 255
-12.001316 5.4085007 5.3928099 255
-11.712238 5.4673958 4.7978287 32
-12.110706 5.4344368 4.8676696 255
-12.502888 5.4179916 4.9387445 255
-12.892674 5.4046478 5.0101771 255
-11.722002 5.658165 5.226738 255
-12.209761 5.649353 5.3224983 255
-12.697399 5.6334763 5.4179139 255
-13.087702 5.6135597 5.4938254 163.5
-13.276466 5.526329 4.6397343 255
-11.488266 5.5987473 5.3969412 5
-11.77416 5.6122437 5.4546843 5
-12.780005 5.3899651 4.831789 107.66666
-12.827104 5.2819862 4.6240349 255
-11.429188 5.347084 5.4560375 139
-11.720182 5.3375015 5.5115347 26
-12.594211 5.4344826 5.2787161 255
-13.066565 5.4412613 5.3798771 138
-11.347631 5.4525909 5.0195189 255
-11.728981 5.4605789 5.100029 255
-12.113441 5.4525032 5.1796064 255
-12.401243 5.4453087 5.2393017 255
-12.224667 5.4123116 4.7804737 6
-12.512146 5.4015427 4.8400412 123
-12.89581 5.3811607 4.9191709 255
-11.731298 5.6097183 4.7333479 255
-12.10981 5.6035423 4.8316555 255
-12.866869 5.575695 5.0274372 255
-13.243918 5.559845 5.125277 255
-11.279224 5.5229073 5.1288795 21
-11.455379 5.5663872 5.178442 255
-11.723827 5.614994 5.251852 255
-12.104197 5.5901833 5.3436413 186
-12.48279 5.566658 5.4356785 17
-11.302988 5.4266205 4.604805 255
-11.580963 5.4486275 4.6685772 255
-11.866809 5.4384727 4.7304926 255
-12.056147 5.4347115 4.7720156 255
-12.528286 5.424366 4.8759699 255
-12.996682 5.4218521 4.980732 255
-13.258778 5.4976234 5.0489874 20
-12.016807 5.3838768 4.6093626 255
-12.202955 5.3865852 4.6545725 255
-12.3909 5.3809204 4.6993222 255
-12.858161 5.3716698 4.8116894 255
-13.094569 5.5725403 5.4358435 11
-11.417778 5.5791321 5.0467496 255
-11.688272 5.6201935 5.1141181 255
-11.970283 5.6135674 5.1784148 255
-12.437902 5.6056213 5.2860942 255
-12.816288 5.5751266 5.3707538 113.5
-11.677639 5.4228973 4.9799986 90
-11.96275 5.4037399 5.0425415 255
-12.336823 5.3986893 5.1275349 255
-12.712103 5.3833504 5.2119703 255
-13.08365 5.3791122 5.2974262 255
-12.341864 5.6240463 5.3116217 255
-12.623539 5.6119156 5.3689499 255
-11.506775 5.6012344 5.1364498 209
-11.872087 5.6383247 5.2159796 255
-11.327267 5.4482002 4.821794 255
-11.600146 5.4844742 4.8744988 255
-11.884119 5.4729652 4.9242158 255
-12.448178 5.4572182 5.0246234 255
-12.730068 5.4452095 5.0747886 255
-13.102526 5.4401169 5.1426759 255
-11.33631 5.4570618 4.9780354 255
-11.899222 5.4539261 5.08601 255
-12.368262 5.4436455 5.175849 255
-12.837762 5.4229164 5.2653193 255
-13.022222 5.427536 5.3021383 255
-13.19414 5.4900932 5.3432355 8
-11.548857 5.6076546 5.0646849 255
-12.011084 5.625206 5.1508627 255
-12.301877 5.618824 5.2035675 255
-11.524633 5.5309372 4.7642498 255
-11.891479 5.5334702 4.8612504 255
-12.167212 5.5299339 4.9337316 255
-12.352809 5.5176468 4.9814334 255
-12.62755 5.5135727 5.0539765 255
-13.086226 5.4974136 5.1743841 255
-11.331038 5.464592 5.3531952 255
-11.698893 5.4678879 5.4356937 255
-11.881796 5.4725151 5.4772625 255
-11.97805 5.3436127 4.5971684 4
-12.347437 5.3380241 4.674017 136
-12.902137 5.3183937 4.7888989 255
-11.27562 5.4025536 5.536037 255
-11.562371 5.3968048 4.7407117 255
-12.405094 5.3738899 4.9192972 255
-12.864878 5.3630943 5.017818 255
-13.127768 5.419014 5.0814247 12
-11.396454 5.5020142 4.9337006 255
-11.667895 5.5219002 4.9931002 255
-12.128416 5.5115128 5.0895233 255
-12.404961 5.5004349 5.1472044 255
-11.419867 5.5048561 5.024219 255
-11.783696 5.5094643 5.1150022 255
-12.149923 5.4979668 5.2048159 255
-12.424529 5.4863472 5.2720532 255
-12.605886 5.4856262 5.3174605 255
-12.789371 5.472538 5.3619742 255
-13.23909 5.4821892 5.4767394 131.5
-13.007124 5.4909058 4.6789126 255
-11.498264 5.5848312 5.3425708 191.5
-11.860514 5.5780792 5.4485936 49.5
-11.580832 5.5737953 4.9071894 255
-11.947924 5.5590515 4.9946413 255
-12.403509 5.5492897 5.1047707 255
-11.400072 5.5073814 5.4702377 255
-11.620144 5.3802757 5.2326655 255
-11.893675 5.378727 5.2951736 255
-12.167687 5.3717422 5.3574042 255
-11.340043 5.5300827 4.9333382 133.5
-11.698103 5.5570717 5.0256019 255
-12.062861 5.5464249 5.1155229 255
-12.33509 5.5423126 5.18332 255
-12.881014 5.5165749 5.3179312 255
-11.315459 5.5375137 4.8491273 15
-11.487706 5.5723648 4.9006729 255
-11.751543 5.5960884 4.9762731 255
-12.111447 5.581974 5.0741682 255
-12.469387 5.5733223 5.1726441 255
-13.161775 5.5134811 4.6801491 255
-11.324144 5.5369339 5.2431974 135
-11.583151 5.5863686 5.3231525 255
-11.762472 5.5846062 5.3740044 255
-12.032709 5.572937 5.4496861 255
-11.472088 5.4699402 4.8925247 255
-11.832827 5.4662895 4.9847965 255
-12.284142 5.4530296 5.0997791 255
-12.464577 5.445858 5.1457167 255
-12.734245 5.4378357 5.2149029 255
-13.179626 5.4426575 5.3318291 255
-12.196558 5.4408989 4.6104364 198.5
-12.468261 5.4340057 4.6762547 255
-12.922361 5.408165 4.7852454 255
-13.18491 5.4468613 4.8542218 101
-11.3686 5.4923668 5.4922252 116.5
-11.627154 5.3871155 4.9560585 255
-11.993969 5.3803558 5.0271544 255
-12.453241 5.3607216 5.1155071 255
-12.727136 5.3536835 5.1689939 255
-13.082214 5.3986626 5.2443871 131
-13.056676 5.3665047 4.6623573 17
-11.348335 5.4051743 5.3475766 255
-11.52939 5.4099617 5.3889589 255
-11.803488 5.4022331 5.4499941 255
-12.167645 5.3944855 5.5317035 255
-12.706935 5.4840851 4.5985422 255
-13.070136 5.4699326 4.6822901 255
-13.249657 5.4729996 4.7248306 255
-11.476838 5.5101395 4.992785 255
-11.840113 5.5074539 5.0713181 255
-12.2033 5.5004044 5.1497698 255
-12.567046 5.4850731 5.2278433 255
-12.590327 5.4953041 4.5915298 255
-12.948962 5.4913216 4.6732426 255
-11.431055 5.5682068 5.4077492 101.66666
-11.531398 5.5053825 4.7029877 255
-11.978863 5.5044937 4.8035622 255
-12.338669 5.4882164 4.8833981 255
-12.607266 5.4794388 4.9436913 255
-13.137592 5.4930153 5.0670156 173.33333
-11.56201 5.5298347 5.2566333 255
-12.099042 5.5170975 5.3755116 255
-12.36607 5.5147095 5.4355426 255
-11.3181 5.4515991 4.6966019 255
-11.66862 5.4803009 4.7808523 255
-12.115313 5.4664612 4.8835087 255
-12.559696 5.4566612 4.9869986 255
-12.914703 5.4458618 5.0699759 255
-13.17642 5.4613991 5.1340933 186
-11.521325 5.4675217 4.676856 235.33333
-12.320429 5.4599266 4.8678503 255
-12.67555 5.4484863 4.9527864 255
-13.11338 5.4626083 5.061451 173.66667
-11.70142 5.4940948 4.5706844 43
-12.149719 5.4596024 4.6799612 255
-12.413208 5.4647408 4.747365 255
-12.589911 5.4608459 4.7919559 255
-12.943568 5.4471931 4.8810358 255
-11.287197 5.4532127 4.6550503 96
-11.464866 5.4529991 4.6984138 255
-11.905178 5.4674721 4.8081951 255
-12.437128 5.4570084 4.9388657 255
-12.791577 5.4444847 5.0260334 255
-13.141562 5.4532623 5.1150455 140
-11.616029 5.4762268 4.9144406 255
-12.15128 5.4609871 5.0400739 255
-12.506608 5.4524727 5.124373 255
-12.860741 5.4455643 5.2091393 255
-13.28918 5.5159035 5.3214145 9
-11.292115 5.4505348 5.0492024 176
-11.641389 5.4862137 5.1342912 255
-12.087222 5.4776268 5.2375264 255
-12.44383 5.4654388 5.3201118 255
-12.887888 5.4523926 5.423985 255
-13.240893 5.4485168 5.5080218 92
-11.355929 5.4867439 5.1049671 255
-11.708938 5.502697 5.1890202 255
-11.976793 5.4960709 5.2509766 255
-12.154706 5.4934845 5.292531 255
-12.600674 5.4745712 5.3958893 255
-12.955449 5.4647255 5.4793482 255
-11.3297 5.4953384 5.2463078 255
-11.502656 5.5221596 5.2898021 255
-11.680932 5.5209961 5.3313537 255
-12.306114 5.500473 5.4762568 255
-11.605052 5.4653587 4.6245632 14.5
-11.875004 5.4520149 4.6873913 242
-12.232242 5.4438248 4.7720518 255
-12.676838 5.4370842 4.8785601 255
-12.943808 5.4282646 4.9423676 255
-13.120069 5.4307823 4.9855862 255
-13.291061 5.4642258 5.0310364 12
-11.443888 5.4253502 5.2607627 255
-12.074839 5.4144936 5.401073 255
-12.345635 5.4032364 5.4609494 255
-11.464772 5.4106102 5.1600318 255
-11.920617 5.3990479 5.2567272 255
-12.192745 5.3952866 5.3151479 255
-12.556147 5.3830376 5.392674 255
-11.454299 5.4059868 4.7689943 255
-11.91537 5.3816032 4.8688607 255
-12.280889 5.3729401 4.9495745 255
-12.828899 5.3526268 5.0702696 255
-13.095593 5.3802414 5.1334324 134.5
-11.417558 5.462204 4.8373156 255
-11.785228 5.4593163 4.916863 255
-12.061274 5.4526939 4.9762368 255
-12.521069 5.4364433 5.0748501 255
-12.88805 5.4223328 5.1536703 255
-13.245367 5.460907 5.2363343 130
-11.314669 5.4839439 4.7848601 77
-11.768311 5.5145988 4.8840141 255
-12.137266 5.5031471 4.9610252 255
-12.59742 5.4870834 5.0571952 255
-13.058235 5.4589462 5.1525326 255
-11.365461 5.4896088 4.5818672 7
-11.627813 5.5567932 4.6435947 255
-11.903697 5.5522156 4.7010207 255
-12.363142 5.5400391 4.7965345 255
-12.730422 5.5260582 4.8727379 255
-13.097808 5.5057106 4.9485717 255
-11.951612 5.5829735 4.9986091 255
-12.407427 5.5791626 5.0952249 255
-12.683479 5.5580444 5.1520004 255
-13.048129 5.5449142 5.2288551 255
-11.493644 5.5908165 4.9025006 171.33333
-11.347342 5.5543976 5.2480288 129
-11.701988 5.593792 5.3334026 255
-13.024746 5.4762993 5.1788683 255
-11.497334 5.5153275 4.7915297 255
-11.765327 5.5231705 4.860611 255
-12.306471 5.5033035 4.9967594 255
-12.575191 5.4991341 5.0653887 255
-12.845037 5.4859085 5.1334763 255
-13.186316 5.441864 4.7081962 3
-11.284101 5.4604073 5.3045917 255
-11.731612 5.4748192 5.4180565 255
-12.183102 5.4621544 5.5297723 255
-12.178604 5.450222 4.597353 11
-12.454274 5.4256096 4.6599336 165
-12.999253 5.4019012 4.7868319 255
-13.262887 5.4382858 4.8535585 10
-11.369408 5.4895744 5.4873075 255
-11.551038 5.4896355 5.5293965 255
-11.693815 5.4350357 5.2232914 255
-12.156154 5.4128723 5.313035 255
-12.614015 5.4064751 5.4041109 255
-12.890564 5.3881264 5.457737 255
-13.156749 5.4275398 5.5158954 31
-11.673439 5.5021515 4.5454798 4
-12.421291 5.4506454 4.6736665 255
-12.793807 5.4231567 4.7376623 255
-13.160699 5.4227333 4.8034358 139.5
-11.50335 5.4551048 4.9753237 255
-12.056628 5.4574356 5.0786114 255
-12.429407 5.4314003 5.1455851 255
-12.243826 5.4407997 5.1118426 255
-12.79944 5.4146881 5.2132378 255
-13.073766 5.4171982 5.2651072 255
-11.398108 5.4977837 5.041604 171.33333
-11.853914 5.5127678 5.1432896 255
-12.221647 5.5035019 5.2231874 255
-12.681766 5.482193 5.3223619 255
-12.956678 5.4717865 5.3820505 255
-11.416749 5.4975357 4.6320672 15
-11.591558 5.5362816 4.6796713 255
-12.139591 5.5234261 4.8144913 255
-12.413552 5.5129128 4.8816285 255
-12.868829 5.496273 4.9935598 255
-13.320271 5.4958305 5.1066313 149
-11.496777 5.5655708 5.0802197 255
-11.761816 5.5897713 5.1590781 255
-12.213247 5.5736923 5.2866755 255
-12.481164 5.5766563 5.3641891 255
-12.933715 5.5407829 5.4904146 5
-13.077324 5.478096 4.6677618 255
-13.255831 5.463501 4.7223063 255
-11.581799 5.5702286 5.3083811 255
-11.938097 5.5641365 5.4176602 162.5
-11.53782 5.5333328 5.2172732 255
-11.802463 5.5356331 5.2983947 255
-11.316496 5.4713249 5.1310148 255
-11.487669 5.4974213 5.186554 255
-11.928846 5.4915161 5.3206697 255
-12.37077 5.4742126 5.4542732 116
-11.521478 5.4063683 5.1378427 255
-12.054373 5.3864975 5.3044252 255
-12.318594 5.3844299 5.3884254 255
-11.325768 5.4867897 5.1245914 36
-11.771396 5.5196953 5.2473097 255
-12.132697 5.5171432 5.3435168 255
-12.493257 5.5141373 5.4397702 255
-12.316765 5.4896927 4.595479 255
-12.776666 5.4593048 4.6922197 255
-13.051024 5.4454269 4.7505941 255
-13.316055 5.4854851 4.8125148 34
-11.431532 5.5439377 5.4752645 17
-11.614477 5.5438194 5.5140638 22
-11.765122 5.5243034 4.5856318 155.33333
-12.13221 5.5094414 4.6632032 255
-12.681666 5.4822693 4.7794847 255
-12.954874 5.4724808 4.837975 255
-13.312117 5.4981232 4.9186735 132
-11.746534 5.523735 4.7367477 25
-12.113743 5.5005569 4.8188548 255
-11.926953 5.530117 4.7789836 255
-12.295341 5.497879 4.8605442 255
-12.751873 5.4707756 4.9635053 255
-13.11472 5.456665 5.0465212 255
-11.437594 5.6173248 4.7369871 116.5
-11.796039 5.6318512 4.8280025 255
-12.159492 5.6145287 4.9171224 255
-12.430855 5.60495 4.9842687 255
-12.611817 5.5964508 5.0289378 255
-13.062297 5.5803757 5.1411324 255
-13.182821 5.5571976 4.6415191 255
-11.373964 5.5585213 4.9270802 130.5
-11.638982 5.5934677 4.9817619 255
-12.091517 5.5897865 5.0691681 255
-12.455114 5.5724411 5.1384315 255
-12.817423 5.5566521 5.2080975 255
-13.264771 5.5630074 5.2975531 177.66667
-12.333014 5.4692421 4.5930519 255
-12.785782 5.4617615 4.6701403 255
-13.147795 5.4518509 4.7319059 255
-11.319188 5.4230423 5.1240945 255
-11.77205 5.4194336 5.194654 255
-12.043457 5.4149971 5.2371612 255
-12.405402 5.4045029 5.2938476 255
-12.856244 5.3925629 5.3653922 255
-13.200239 5.4766541 5.4301496 6
-11.556854 5.4279213 5.3080974 255
-11.831718 5.407032 5.3515525 255
-12.284312 5.3932076 5.4260364 205
-12.556327 5.3785553 5.4705253 54
-12.735365 5.379776 5.5011516 21
-11.426542 5.3333206 4.6761718 10
-11.792937 5.3080177 4.7401433 230
-11.976228 5.2925148 4.7720551 255
-11.695345 5.412487 5.1532145 255
-12.054239 5.406105 5.2336435 255
-12.413713 5.391468 5.3137808 255
-12.856773 5.4010201 5.4165335 180.66667
-11.548122 5.5051613 4.7345347 38
-11.819664 5.4768295 4.8060937 255
-12.262421 5.4752083 4.9286227 255
-12.528351 5.468811 5.0019765 255
-12.970973 5.4552116 5.1243443 255
-11.446777 5.5132523 5.0154037 255
-11.886037 5.5279922 5.1448107 255
-12.328384 5.520359 5.2730398 255
-12.681562 5.512413 5.3757753 255
-13.120485 5.5105553 5.5051584 73
-11.685034 5.5598335 5.4072499 255
-12.134895 5.5269547 5.5262356 25.666666
-11.508297 5.5863457 4.9995975 255
-11.859892 5.6100807 5.0904217 255
-12.216683 5.6020699 5.1794062 255
-12.572285 5.5956345 5.2688122 255
-13.105614 5.5766716 5.4028234 157
-11.899439 5.5563507 4.5684657 151
-12.34917 5.531208 4.664722 255
-12.795424 5.5170403 4.7621608 255
-13.062641 5.5075798 4.8208337 255
-11.585615 5.5140152 4.8445034 255
-11.94552 5.5002174 4.913209 255
-12.214141 5.4931641 4.9652414 255
-12.57231 5.4791946 5.0346489 255
-12.928565 5.4707718 5.1048594 255
-11.27288 5.4727669 5.2508116 255
-11.53677 5.5025406 5.3004971 255
-11.806621 5.4998398 5.3480043 255
-12.347588 5.4783821 5.442606 255
-12.706431 5.468029 5.5064507 255
-11.632433 5.4607849 5.173327 255
-11.903814 5.4494133 5.2322106 255
-12.263817 5.4394531 5.3113637 255
-12.064286 5.4376068 4.6146555 18.5
-11.348228 5.4776154 4.8203001 255
-11.796198 5.4884949 4.9309082 255
-12.068243 5.4743004 4.9960785 255
-12.337828 5.4706764 5.0620813 255
-11.335985 5.4402618 5.2723837 255
-11.606398 5.4424133 5.336061 255
-11.967503 5.4387207 5.4206843 255
-11.598891 5.4826164 5.2818699 255
-11.962496 5.474865 5.358851 255
-11.369205 5.5249901 4.8896918 222.5
-11.726491 5.5523987 4.967906 255
-12.181824 5.5353737 5.0626521 255
-12.453437 5.5295258 5.1199946 255
-11.478195 5.5075607 4.839633 255
-11.929753 5.5152016 4.9263344 255
-12.383638 5.5034218 5.0122738 255
-12.565784 5.4929161 5.0463924 255
-11.796003 5.458168 5.2561774 255
-12.159998 5.4480476 5.3225694 255
-12.43121 5.4466705 5.3730545 255
-12.794991 5.4284706 5.4393773 255
-11.505194 5.5284157 5.2500424 255
-11.868899 5.5231819 5.3242383 255
-12.322008 5.5182762 5.4174781 255
-11.430429 5.5122757 5.253633 255
-11.877506 5.5206184 5.3667221 255
-11.46001 5.4783249 4.9906964 255
-11.725658 5.4860497 5.0660348 255
-12.08276 5.4771805 5.16536 255
-12.350784 5.4659538 5.2396607 255
-12.796131 5.4483719 5.3637919 255
-13.060645 5.449295 5.4393029 255
-11.83832 5.7102356 5.1217184 255
-12.190611 5.6865082 5.2345648 32.5
-12.454679 5.6657524 5.3191147 8
-12.447008 5.5145416 4.6516256 13
-12.714144 5.4688263 4.7275915 175.5
-13.06142 5.4537811 4.832058 255
-13.31233 5.4976845 4.9143505 25
-11.553551 5.3806839 5.2078652 255
-11.902409 5.3788605 5.3109527 255
-12.16218 5.3843613 5.3890109 255
-12.509908 5.3804436 5.4925723 255
-11.668224 5.3703766 5.0968156 255
-12.111005 5.3650131 5.2186399 255
-12.37646 5.3592415 5.29176 255
-12.817282 5.3517265 5.414165 255
-13.266228 5.2896118 5.5327325 6
-11.513373 5.3892288 4.7671723 255
-12.048386 5.3899765 4.9130812 255
-12.323116 5.3739243 4.9864674 255
-12.684292 5.3665657 5.0849934 255
-12.950325 5.364357 5.1582441 255
-13.296803 5.4051247 5.2593412 2
-11.455405 5.4326057 5.0692711 255
-11.813515 5.4352722 5.1663799 255
-12.262197 5.4259796 5.2871618 255
-12.620745 5.4151154 5.3837214 255
-12.976417 5.4156227 5.4813294 150.5
-11.48317 5.4464989 4.6632481 136.5
-11.933973 5.4346237 4.7868404 255
-12.382519 5.4266777 4.9108925 255
-12.652466 5.4133034 4.9848413 255
-13.010448 5.4019966 5.0839863 255
-13.077627 5.4343491 4.6364508 103
-11.695745 5.4929657 5.3468084 255
-12.056047 5.4860306 5.4447579 255
-12.003366 5.4832382 4.5778098 92
-12.274673 5.4695587 4.6528602 255
-12.544983 5.4585953 4.7281098 255
-12.995452 5.4331741 4.8531532 255
-12.180635 5.513195 4.7111998 255
-12.45159 5.5063553 4.7824507 255
-12.903077 5.4895363 4.9009686 255
-12.720957 5.5061874 4.8541961 255
-13.08305 5.4840927 4.9485054 255
-11.817212 5.5292511 4.616713 255
-11.995721 5.5391884 4.6650691 255
-11.568218 5.5509262 4.5739112 130.5
-12.102271 5.5989265 4.6999521 255
-12.55732 5.5769882 4.8015928 255
-12.827827 5.5741081 4.8633971 255
-13.190602 5.5531845 4.9448652 255
-11.445209 5.5500107 5.0679412 102
-11.796177 5.5983315 5.1525631 255
-12.066441 5.5947304 5.2134671 255
-12.608592 5.569912 5.3344641 255
-12.967434 5.5615463 5.4160819 255
-13.216513 5.4838066 4.6802912 208
-11.437787 5.5308418 5.3622274 255
-11.880558 5.5605202 5.4646168 255
-11.441599 5.4830704 4.8173699 255
-11.61833 5.5026779 4.8570838 255
-11.982102 5.4852486 4.9329915 255
-12.343109 5.477211 5.00981 255
-12.612647 5.4744568 5.0678582 255
-12.974134 5.4544106 5.1443491 255
-11.667459 5.4577065 4.8386135 255
-12.033772 5.4458656 4.9035835 255
-12.307575 5.4382706 4.9525833 255
-13.104774 5.4023743 4.9653182 255
-11.362101 5.444458 4.6792951 172.5
-11.728949 5.4451447 4.7396502 255
-12.189372 5.4294586 4.8143849 255
-12.46559 5.4157562 4.859138 255
-12.739412 5.4126396 4.904716 255
-13.278431 5.4494896 4.9992981 8
-11.298333 5.4374199 4.8866382 255
-11.661494 5.4533119 4.952487 255
-12.121733 5.4356422 5.0325403 255
-12.488092 5.4248772 5.0971022 255
-12.854266 5.4097557 5.1615939 255
-13.210672 5.4473305 5.2301702 130
-11.375198 5.4291496 5.0500927 255
-11.742043 5.4317513 5.1163545 255
-12.202961 5.4156151 5.1981215 255
-12.57162 5.3968925 5.2633162 255
-12.937958 5.3855743 5.3292503 255
-13.290262 5.4524994 5.4013534 8.5
-12.99509 5.4365158 4.6438084 222
-13.177975 5.4371643 4.6761141 1
-11.688211 5.4902534 5.4764576 255
-11.381163 5.4708443 5.0815954 255
-11.938202 5.4579773 5.1754198 255
-12.21663 5.4474449 5.2221479 255
-12.586442 5.4366112 5.2847853 255
-12.956438 5.4194145 5.347086 255
-13.091941 5.455162 4.6405392 210.5
-11.317037 5.5073929 5.3722296 255
-11.593348 5.5128708 5.4220734 255
-11.868762 5.5210533 5.4722052 255
-11.489691 5.5103683 5.1007252 255
-11.857475 5.5148277 5.1699924 255
-12.320026 5.4981308 5.2551804 255
-12.781487 5.4800529 5.3404198 255
-13.149416 5.466217 5.4087982 255
-11.536872 5.5042076 4.8643456 255
-11.99676 5.5063057 4.9512987 255
-12.275456 5.4887466 5.0023012 255
-12.736244 5.4726944 5.0883384 255
-13.195015 5.4611893 5.1748638 255
-13.251925 5.4608727 4.61589 255
-12.472252 5.525032 5.523139 11
-11.643392 5.5510559 5.3605518 255
-12.01194 5.5418472 5.4329042 255
-12.291221 5.5157661 5.4857998 45
-12.478506 5.486866 4.9562674 255
-12.753855 5.4743156 5.0111346 255
-13.120397 5.4562263 5.0843086 255
-11.561398 5.502697 4.772265 255
-11.927565 5.5037918 4.8462267 255
-11.523813 5.5135956 4.9195404 255
-11.888735 5.5171089 4.9933896 255
-12.257215 5.4966202 5.0658035 255
-12.621962 5.491394 5.1394506 255
-13.170498 5.4652863 5.2489781 255
-11.812444 5.489212 4.9597139 255
-12.177661 5.4766693 5.0360937 255
-12.541961 5.4636841 5.1126442 255
-12.906382 5.4443588 5.1889544 255
-13.263441 5.4639816 5.2683058 132
-11.34647 5.4912148 5.0957775 255
-11.612154 5.5199089 5.1590786 255
-11.880808 5.5317612 5.2213507 255
-12.424919 5.510582 5.3431416 255
-12.876338 5.4954414 5.4451933 255
-13.147329 5.4814224 5.5062318 60
-11.299866 5.4856834 5.0946689 255
-11.651841 5.521965 5.1837602 255
-12.10036 5.5183563 5.2920427 255
-12.459553 5.50774 5.378428 255
-12.729475 5.4933739 5.4429016 255
-11.422689 5.4707146 4.9204302 255
-11.686345 5.4926186 4.9912796 255
-12.225052 5.4698792 5.1288681 255
-12.581951 5.4602432 5.2212925 255
-12.850071 5.4471169 5.2903366 255
-13.289719 5.4614563 5.408493 129.5
-11.546398 5.474865 4.7544641 255
-11.989394 5.4766502 4.8791122 255
-12.345715 5.4622345 4.9780741 255
-12.612249 5.4519043 5.0524693 255
-13.05398 5.4420242 5.1772976 255
-13.310016 5.4872017 5.2560945 10
-11.665575 5.4719772 4.5788755 176.33333
-12.108866 5.4669342 4.7049541 255
-12.462322 5.4635353 4.8061419 255
-12.729368 5.4467468 4.8812494 255
-13.166618 5.4575806 5.0093699 255
-11.528245 5.4558296 4.7291093 255
-11.971496 5.4569206 4.8529563 255
-12.326515 5.4504852 4.9518394 255
-12.682768 5.4318581 5.0501199 255
-12.947647 5.4277153 5.1246638 255
-11.44798 5.4884682 4.9242768 255
-11.799004 5.4999542 5.0302615 255
-12.242877 5.4819527 5.1608167 255
-12.59523 5.4765625 5.2661662 255
-12.861411 5.458271 5.3442678 255
-13.298567 5.4587326 5.4770751 48.5
-11.591541 5.4700356 4.8956261 255
-12.031327 5.463665 5.0344372 255
-12.38237 5.4572525 5.1456594 255
-12.646314 5.4455681 5.2287178 255
-13.170595 5.4337959 5.3960667 255
-11.414758 5.4417152 4.6315694 173.33333
-11.936031 5.4635849 4.8034477 255
-12.200175 5.4521065 4.8881469 255
-12.461212 5.4551468 4.9739347 255
-12.899985 5.4328537 5.1153207 255
-13.243462 5.4541359 5.2315049 131.5
-11.334961 5.441555 4.7907414 255
-11.680061 5.4750824 4.903749 255
-12.122248 5.455471 5.0412221 255
-12.298002 5.4512711 5.0965543 255
-12.735816 5.4439888 5.2353721 255
-13.086058 5.4328346 5.3462934 255
-11.577217 5.497612 4.8621216 255
-12.017254 5.4903908 5.0008101 255
-12.368753 5.4818535 5.111834 255
-12.63138 5.4779129 5.195415 255
-12.98204 5.4652481 5.3065305 255
-11.477602 5.4938774 5.1052966 255
-11.828342 5.4989204 5.2156076 255
-12.269573 5.4846191 5.3522835 255
-12.620613 5.4780083 5.4622474 255
-12.22099 5.4425392 4.6326518 191.66667
-12.660034 5.4344826 4.7734447 255
-13.009844 5.4305305 4.8864679 255
-11.517879 5.5139465 5.5164423 160
-12.792066 5.443943 4.6840444 255
-13.140996 5.4413948 4.7983632 255
-11.646415 5.5344467 5.4232888 255
-12.98414 5.4219284 4.6185379 255
-13.237615 5.4714775 4.7056684 255
-11.493923 5.5128212 5.254137 255
-11.845429 5.5138817 5.3645706 255
-12.198317 5.5038185 5.4743633 255
-11.663115 5.4527092 4.6328287 255
-12.192376 5.4421692 4.7948971 255
-12.455249 5.4419327 4.8764677 255
-12.72002 5.4287376 4.9572916 255
-13.152934 5.4488373 5.0952406 150.5
-12.130209 5.4620705 4.5792036 140
-12.397567 5.438961 4.658721 255
-12.747149 5.4413223 4.7670293 255
-13.263604 5.4842796 4.9327307 107.33334
-11.355019 5.5007782 5.4535236 176.66667
-11.438098 5.5155144 5.1032076 222
-11.871575 5.5396118 5.2415276 255
-12.134594 5.5358696 5.323452 255
-12.573968 5.5173264 5.4594212 165
-11.374247 5.4931908 4.6771421 255
-11.632538 5.5219879 4.7578945 255
-12.073442 5.5108795 4.8890553 255
-12.512916 5.5002556 5.0206394 255
-12.776218 5.4921303 5.0996675 255
-13.210819 5.4971085 5.2331018 192
-12.689903 5.4549942 4.6610479 255
-13.03942 5.4556656 4.7632179 255
-11.317807 5.5093842 5.3640165 173.5
-11.75194 5.5392647 5.4914541 255
-12.616006 5.4496689 4.6416316 255
-12.881294 5.4424438 4.7121139 255
-13.230056 5.4584351 4.808023 139
-11.348639 5.4969444 5.3961005 218
-11.784809 5.5294914 5.5144105 232
-11.418649 5.4621696 4.6767526 255
-11.681647 5.4843292 4.7446561 255
-12.128614 5.4715004 4.8549981 255
-12.485314 5.4593697 4.9435019 255
-13.017916 5.446434 5.0771356 255
-13.279999 5.4607964 5.1457353 132.5
-11.363956 5.4904289 5.0361466 255
-11.805357 5.5106697 5.1497025 255
-12.162407 5.5015564 5.2391095 255
-12.5186 5.4920502 5.3287921 255
-12.873931 5.4821587 5.4187465 255
-11.677898 5.485733 5.0476518 255
-12.123362 5.471962 5.1650558 255
-12.389368 5.4665184 5.2359309 255
-12.832752 5.4505768 5.3539109 255
-12.971899 5.4041405 4.6474228 255
-13.146356 5.410183 4.698535 255
-11.330648 5.4662704 5.2846165 255
-11.767464 5.4937057 5.4110003 255
-12.211908 5.4752922 5.5343676 128
-11.609393 5.4557838 4.6070204 255
-11.87237 5.4686852 4.6839867 255
-12.314471 5.4652252 4.8110056 255
-12.581192 5.4510345 4.886611 255
-13.022294 5.4401703 5.0137663 255
-11.400281 5.4492264 4.7089705 255
-11.571882 5.4795723 4.7607322 255
-11.928638 5.4679756 4.8597941 255
-12.19618 5.4556808 4.9339986 255
-12.639948 5.4400635 5.0582814 255
-13.080841 5.4334564 5.1835642 255
-11.285166 5.4711151 5.0188184 133.5
-11.718301 5.5220451 5.1497459 255
-12.073348 5.5139618 5.2514014 255
-12.5165 5.5016098 5.3785806 255
-12.871132 5.4845695 5.4800467 255
-11.426088 5.5024643 4.5507903 135
-11.690076 5.5163116 4.6247039 255
-11.954673 5.5250816 4.6984553 255
-12.490387 5.4992294 4.8436484 255
-12.755329 5.4979897 4.9172196 255
-13.195574 5.4982491 5.0403666 255
-12.660337 5.4828491 4.6767588 255
-11.307285 5.5184631 5.4076214 15
-11.569996 5.533947 5.4780521 23
-11.313848 5.465477 5.0602379 255
-11.659784 5.5083237 5.1546965 255
-12.016447 5.492054 5.2453384 255
-12.37001 5.4871635 5.3371344 255
-12.812014 5.4731369 5.4517946 255
-11.359852 5.4818802 4.9365573 255
-11.61804 5.5192146 5.0086055 255
-12.061382 5.50914 5.1242328 255
-12.415629 5.4977112 5.2168565 255
-12.857786 5.4789352 5.332787 255
-13.293369 5.4923744 5.4516339 130.5
-11.322601 5.4864998 5.0473781 133
-11.579929 5.5318985 5.1175723 255
-11.753819 5.5496635 5.1636586 255
-12.19854 5.5365906 5.2751784 255
-12.553244 5.5262947 5.3647771 255
-12.908077 5.5097351 5.4542308 255
-13.17213 5.5061836 5.5222144 216
-11.450976 5.5040627 5.2836504 255
-11.713737 5.5275879 5.3477345 255
-12.071058 5.5191383 5.4305296 255
-12.429265 5.5004959 5.5128803 255
-11.405828 5.4864349 4.5866871 11
-11.58739 5.4744949 4.6266537 178
-12.127333 5.4544182 4.7480192 255
-12.575057 5.4412727 4.8498459 255
-12.9308 5.4385567 4.9322214 255
-13.198078 5.4306335 4.9938135 255
-11.447762 5.4799957 5.0978699 255
-11.805077 5.486145 5.1789045 255
-12.254083 5.4746246 5.2793245 255
-12.70302 5.455925 5.3796387 255
-13.060499 5.4440384 5.4605045 255
-11.864321 5.4599915 4.6113591 8.5
-12.321476 5.4081841 4.7121882 255
-12.589351 5.4073868 4.7748208 255
-12.94573 5.4069939 4.8586307 255
-13.206542 5.4426384 4.9241261 129
-11.29285 5.4093399 4.7369008 255
-11.646948 5.4367981 4.821959 255
-11.825075 5.4437828 4.8641772 255
-12.275501 5.4291611 4.9679036 255
-12.725283 5.4094772 5.0717006 255
-13.081435 5.4094467 5.1561241 255
-11.455589 5.4940948 4.5806828 255
-11.812199 5.5209961 4.6609483 255
-12.084464 5.5130768 4.7195992 255
-12.628456 5.491375 4.8369212 255
-12.988829 5.4831085 4.9158435 255
-13.258821 5.4754333 4.9751039 255
-12.185726 5.4903221 4.7805166 11.5
-12.551177 5.4590721 4.8573499 182.5
-12.914206 5.4352455 4.9348936 255
-11.794027 5.5414314 5.2318859 255
-12.154072 5.5296898 5.3123941 255
-12.514574 5.5096855 5.3925943 64.5
-12.785522 5.4877968 5.4524231 14
-11.402266 5.500145 5.0922871 255
-11.848414 5.5298996 5.1863103 255
-12.302098 5.5127029 5.2774458 255
-12.664483 5.4959259 5.3504477 255
-12.935651 5.483345 5.4053764 255
-12.262662 5.4874992 4.6231489 255
-12.535025 5.4777412 4.682343 255
-11.349857 5.44524 5.1899142 255
-11.707739 5.4683952 5.2681646 255
-11.981544 5.4547462 5.3247457 255
-12.343247 5.4502373 5.4014258 255
-12.615638 5.4375191 5.4583821 255
-11.678886 5.4786034 5.1703701 255
-12.046444 5.4616432 5.2400146 255
-12.502523 5.4506531 5.3281298 255
-12.957877 5.4361763 5.4163294 255
-11.525393 5.4771309 4.697875 255
-11.984759 5.4719734 4.7788095 255
-12.168592 5.4672585 4.8111076 255
-12.353707 5.4540863 4.8428988 255
-12.719481 5.4479866 4.9079809 255
-13.173696 5.4521484 4.9904194 255
-11.719706 5.4370575 4.7348275 255
-11.998075 5.4237747 4.7815475 255
-12.460602 5.4016609 4.8596158 255
-12.827897 5.3930817 4.9228539 255
-13.103234 5.3841705 4.9702239 255
-11.889311 5.4660797 5.1698999 255
-12.351103 5.4451866 5.2535105 255
-12.810344 5.4307747 5.3377991 255
-13.172832 5.4423256 5.4071908 144
-11.521189 5.469677 5.1022558 255
-11.538424 5.4837494 4.5666032 186
-12.001874 5.460804 4.6551838 255
-12.187405 5.4481659 4.6904364 255
-12.646304 5.437397 4.7799902 255
-13.014091 5.4190369 4.8511233 255
-13.174657 5.4333534 4.6721487 255
-11.382918 5.5016403 5.367744 176
-11.746708 5.515419 5.4438872 255
-12.023533 5.5022049 5.4993081 255
-12.063736 5.4844551 5.1955762 255
-12.518943 5.4738884 5.2994218 255
-12.883727 5.4561081 5.3819442 255
-13.156064 5.4466743 5.4442039 255
-11.335912 5.4832077 5.0285783 255
-11.69684 5.5011635 5.1132336 255
-12.331009 5.4899826 5.5309968 255
-11.332591 5.4823608 5.2988667 118
-11.508779 5.5135918 5.3432221 255
-11.873222 5.5116196 5.4272537 255
-13.119658 5.4833641 4.6238012 177
-13.299524 5.4901047 4.6648836 220
-12.142921 5.5345421 5.4756513 255
-12.4196 5.5126495 5.5340395 149.5
-11.329771 5.4937744 5.2929306 128.5
-11.959698 5.5404816 5.4360957 255
-12.256721 5.4926834 4.6048236 98.5
-12.536166 5.4578552 4.6614866 255
-13.084861 5.4350281 4.7778583 255
-11.465737 5.5341873 5.5049281 143.5
-12.226348 5.4512825 4.6478086 255
-12.503393 5.430378 4.7076049 255
-12.868081 5.4238472 4.7887254 255
-13.050261 5.4196854 4.8292503 255
-13.315911 5.4575386 4.8930259 126
-11.517223 5.496376 4.7253222 255
-11.791801 5.4920464 4.7899432 255
-12.249422 5.4783173 4.8972697 255
-12.614983 5.4646606 4.9829931 255
-13.068538 5.4598045 5.0910544 255
-11.368699 5.4492989 5.282577 133.5
-11.727403 5.4838791 5.3676782 255
-12.002181 5.4779701 5.4291863 255
-12.459373 5.4655457 5.5316129 255
-12.520555 5.467762 4.617044 255
-12.982437 5.429718 4.716486 255
-11.4445 5.5187798 5.4503636 184
-11.720595 5.5145416 5.510344 255
-11.693082 5.5057678 4.5776739 255
-12.153233 5.4867973 4.68015 255
-12.611031 5.4727631 4.7829771 255
-12.884113 5.4696121 4.8450489 255
-13.245679 5.4763298 4.9285975 255
-12.291943 5.4701881 5.3095856 255
-12.656943 5.4580154 5.3898888 255
-13.022434 5.437542 5.4696794 255
-11.472139 5.4721146 5.127542 180.66667
-11.833799 5.4884453 5.2096004 255
-13.117964 5.4700737 4.6188965 175
-11.404239 5.5168152 5.2846847 255
-11.676821 5.5241241 5.348033 255
-11.95147 5.5184784 5.4104691 255
-12.407763 5.5104103 5.514751 155.5
-11.318035 5.438076 4.8211594 133
-11.583314 5.4816704 4.8897324 255
-12.041451 5.4675713 4.9983807 255
-12.407823 5.4512405 5.0849781 255
-12.863106 5.4380989 5.1937771 255
-13.224387 5.4401207 5.281785 255
-11.634473 5.4979935 4.7730942 255
-11.99977 5.4899597 4.8626237 255
-12.547308 5.4703941 4.99646 255
-12.911031 5.4582481 5.0857835 255
-12.343439 5.471405 4.5860753 158.66667
-12.889668 5.4506912 4.7204614 255
-13.252647 5.4367867 4.8100839 255
-11.339243 5.5288467 5.4085464 19
-11.702115 5.5351372 5.498405 175.66667
-11.378291 5.4490776 4.7116799 255
-11.645934 5.4742317 4.7832294 255
-11.920302 5.4629364 4.8524408 255
-12.374932 5.4512939 4.968286 255
-12.828854 5.4360313 5.0839176 255
-13.098574 5.4383125 5.1541429 255
-13.190321 5.4516869 4.6390963 45
-11.353979 5.4852905 5.2018876 136
-11.710279 5.5102158 5.3055015 255
-12.163009 5.4979248 5.4318891 255
-12.43364 5.4921341 5.5078492 255
-11.403959 5.5053711 4.8336463 255
-11.67149 5.5234833 4.9104657 255
-12.124763 5.5103378 5.0356598 255
-12.395851 5.5032539 5.110837 255
-12.758165 5.4846001 5.2104216 255
-13.204824 5.4910355 5.3371153 174
-12.713799 5.4866753 4.59377 255
-12.986827 5.4678726 4.6641421 255
-13.343672 5.482151 4.7604828 132.5
-11.341802 5.5279922 5.3060026 10
-11.607725 5.5598526 5.3790646 255
-11.971733 5.550045 5.4726915 136.5
-12.106796 5.5307236 5.29493 255
-12.379135 5.5221062 5.3625588 255
-12.832671 5.5036278 5.4750862 140
-11.478147 5.5047989 5.134129 131
-11.834532 5.5358658 5.227119 255
-12.082852 5.4615364 4.9727278 255
-12.53339 5.4599571 5.0882521 255
-12.804018 5.4535522 5.1572847 255
-13.162872 5.4528656 5.2500114 255
-12.001804 5.491497 5.0193963 255
-12.272348 5.4831009 5.0934558 255
-12.632436 5.471199 5.1922231 255
-12.991702 5.4588699 5.2910509 255
-11.291168 5.445694 4.8176622 8
-11.462156 5.4923058 4.8703532 255
-11.638606 5.5109291 4.9212732 255
-12.266319 5.4968758 4.5867953 7.5
-12.625974 5.4771614 4.6909752 179.5
-12.984734 5.4569969 4.7951822 255
-11.320849 5.5268631 5.4064493 10
-11.677211 5.5350266 5.5113015 69
-12.545713 5.4854431 5.1773195 255
-12.904111 5.4686699 5.2819123 255
-13.171859 5.4590149 5.3606224 255
-11.472796 5.493866 4.8610859 255
-11.827723 5.5098 4.9676719 255
-12.05232 5.5034447 5.1558971 255
-12.408965 5.4953156 5.2658787 255
-12.676485 5.4856071 5.3481479 255
-12.944425 5.470768 5.430058 255
-11.517324 5.5070114 4.9904828 255
-11.873842 5.5065994 5.1008716 255
-13.110376 5.4704819 4.6330943 255
-11.26968 5.4854813 5.1499901 6
-11.523077 5.5533485 5.2383614 255
-11.967777 5.5479012 5.3774476 143
-11.412922 5.4927139 5.0084667 255
-11.853646 5.5068932 5.1454892 255
-12.121131 5.4958572 5.2264528 255
-12.387637 5.4875412 5.3076811 255
-12.830252 5.4757462 5.4434161 255
-11.468212 5.4962425 5.1010609 255
-11.734035 5.5075989 5.1775703 255
-12.182077 5.4946136 5.3030539 255
-12.449565 5.4906502 5.3787422 255
-12.984661 5.4731102 5.5297194 173
-11.862099 5.4933853 4.5665417 23.5
-12.223705 5.4709702 4.6656885 255
-12.851309 5.4471283 4.8404012 255
-13.118731 5.4407349 4.9156556 255
-11.280252 5.5042152 5.4928241 23
-11.297062 5.4820175 4.7989159 128.5
-11.651372 5.5057716 4.9004431 255
-12.011782 5.493824 4.9997454 255
-12.459746 5.485096 5.1244841 255
-12.908116 5.4671745 5.2487507 255
-13.260265 5.4861832 5.3508244 134.5
-12.284655 5.4885445 4.6080675 213.5
-12.731268 5.471756 4.7380171 255
-13.175869 5.4595528 4.8684292 255
-11.330881 5.5292587 5.4247093 53
-11.594923 5.5480499 5.5037785 89
-11.313676 5.4931793 4.8570242 133.5
-11.661285 5.535141 4.9659605 255
-12.107073 5.524086 5.0981474 255
-12.37444 5.5139694 5.1773319 255
-12.639469 5.5144424 5.2573547 255
-13.169374 5.5084496 5.417264 172
-11.371 5.4670792 4.7093167 255
-11.634098 5.4803619 4.793016 255
-12.07798 5.4696732 4.9305725 255
-12.343126 5.4656677 5.013381 255
-12.609465 5.4526062 5.0956383 255
-13.134581 5.4614677 5.2629647 173.66667
-12.216276 5.4929085 4.5742254 247
-12.570854 5.4762573 4.6854858 255
-12.835758 5.4661903 4.7691584 255
-11.266966 5.5332298 5.3739309 19
-11.528015 5.5534363 5.4586973 111
-11.380959 5.4952888 4.6704955 255
-11.816467 5.5215111 4.8116364 255
-11.994404 5.51054 4.8668051 255
-12.523495 5.4947891 5.0337024 255
-12.961454 5.4905586 5.1737008 255
-13.224301 5.4838905 5.2575555 255
-11.390447 5.4704361 4.6143246 195
-11.829314 5.4855957 4.7505317 255
-12.00621 5.4827538 4.8045454 255
-12.537568 5.4626122 4.9661031 255
-12.977382 5.4544907 5.101624 255
-13.239239 5.4580841 5.183701 255
-11.382363 5.4710426 4.7343836 255
-11.911303 5.4851303 4.8925629 255
-12.177309 5.4803009 4.9710588 255
-12.620775 5.4653473 5.1016531 255
-13.061804 5.4567719 5.2329807 255
-11.389431 5.4894485 5.1397257 255
-11.830515 5.4999046 5.2724085 255
-12.184593 5.4967232 5.3779898 255
-12.627171 5.4868507 5.5097704 255
-12.086555 5.4594002 4.595098 195.5
-12.530279 5.4522018 4.7264657 255
-12.973353 5.4415436 4.8578548 255
-13.320107 5.4739723 4.9659514 130
-11.415108 5.5198135 5.4924903 63
-11.397403 5.4700165 4.5842247 130.5
-12.109235 5.4621506 4.7951994 255
-12.464502 5.4546356 4.9007006 255
-12.731332 5.4435844 4.9795542 255
-12.996168 5.4408722 5.0590801 255
-11.303793 5.4643936 4.8848534 132.5
-11.5621 5.5075684 4.9677963 255
-12.097327 5.4916496 5.1270576 255
-12.541361 5.481102 5.2602029 255
-12.896386 5.4679184 5.36655 255
-13.245402 5.4858093 5.4754663 132.5
-11.610908 5.5387802 5.0960493 255
-12.237265 5.5251846 5.2726698 255
-12.504942 5.518692 5.3484812 255
-12.862793 5.5001907 5.4489527 255
-13.125916 5.5143242 5.5265732 20
-11.393952 5.4927063 4.784081 255
-11.658534 5.5064926 4.8630624 255
-12.015051 5.5017967 4.9670267 255
-12.462163 5.4807129 5.0961552 255
-12.906125 5.4689407 5.2261739 255
-11.386592 5.4677353 4.5991297 255
-11.555809 5.5095406 4.6562047 255
-11.913853 5.4894829 4.7640142 255
-12.356606 5.4825363 4.9001331 255
-12.798891 5.47052 5.0361576 255
-13.152763 5.4553757 5.1447382 255
-13.320893 5.4993134 5.2028065 14
-13.21818 5.4453621 5.0071802 255
-11.705778 5.4978676 4.5623732 142
-12.06324 5.4852219 4.6667895 255
-12.774776 5.4625587 4.8762007 255
-13.21236 5.4805145 5.0096588 132
-11.38983 5.5058098 4.5828891 38
-12.016607 5.5067787 4.7505789 255
-12.375886 5.4948425 4.8458505 255
-12.64493 5.4848824 4.9173422 255
-12.912975 5.4773674 4.9891047 255
-13.180126 5.4725952 5.0611525 255
-13.128343 5.4401512 4.7818041 255
-12.594359 5.4470367 4.6368504 172.5
-12.863172 5.4344902 4.7086854 255
-11.497796 5.5247383 5.4294076 255
-11.556959 5.4858818 4.8447738 255
-11.737761 5.4767609 4.8927159 255
-11.916183 5.4788017 4.9414468 255
-12.276075 5.4625854 5.0376701 255
-12.723489 5.4491348 5.1586213 255
-12.992222 5.4353333 5.2309046 255
-11.435491 5.4761009 5.1818175 255
-11.882681 5.4783478 5.303792 255
-12.240882 5.4726601 5.4010472 255
-12.511007 5.457077 5.4732337 255
-12.579611 5.4437523 4.6227574 154
-12.850821 5.4299545 4.6931257 255
-13.293753 5.4542885 4.8136139 128.5
-11.38525 5.5007858 5.3986478 255
-12.554873 5.4728775 4.6359634 255
-13.002243 5.4592667 4.7592964 255
-13.267834 5.4641495 4.8342705 136.5
-11.433324 5.5295181 5.417779 59.5
-11.747196 5.5091515 4.5929933 55.5
-12.290347 5.4767952 4.7383633 255
-12.739218 5.461132 4.8604131 255
-13.006848 5.4572945 4.9341192 255
-11.424441 5.4973335 5.2523298 255
-11.782159 5.5083885 5.3492389 255
-12.323807 5.4901085 5.4922876 255
-11.822989 5.498745 5.0675845 255
-12.274867 5.4928856 5.1836042 255
-12.636606 5.4816399 5.2760739 255
-12.998178 5.4660072 5.3683181 255
-13.269259 5.451313 5.4373336 149
-11.462795 5.4913216 4.9740872 177
-11.397992 5.4831429 4.653872 107
-11.575124 5.5066452 4.7007575 255
-11.759788 5.4903526 4.7451258 255
-12.12417 5.4794617 4.8352895 255
-12.579612 5.4584198 4.9475794 255
-12.941123 5.4519119 5.0381866 255
-11.512499 5.4988174 4.8614693 255
-11.784955 5.5043144 4.9255481 255
-12.243655 5.4827881 5.0303864 255
-12.608167 5.4730988 5.1148558 255
-12.972207 5.46101 5.1992412 255
-11.408115 5.5035439 4.6066065 21
-11.681238 5.5033875 4.672153 255
-11.956369 5.4902573 4.736917 255
-12.502787 5.4754257 4.8672876 255
-12.775232 5.4678612 4.9325342 255
-13.138641 5.4524956 5.0192337 255
-12.061167 5.5503731 4.9300036 255
-12.333663 5.5319061 5.0026159 255
-12.78268 5.5227776 5.1252055 255
-13.142007 5.5093079 5.2229638 255
-11.522326 5.5461121 4.7822204 255
-11.789073 5.5637016 4.8570747 255
-13.115951 5.4597435 4.6557975 255
-13.291509 5.4733505 4.7071023 255
-11.550049 5.5438461 5.3129396 255
-11.820777 5.5349197 5.3869123 255
-12.180586 5.5249329 5.4857821 255
-12.490078 5.484642 4.5837803 21.5
-12.760837 5.4686279 4.6575131 255
-13.208563 5.4551239 4.7813358 255
-11.380376 5.5150452 5.3673978 255
-11.735672 5.5351257 5.4673147 255
-11.287973 5.5393829 4.768064 129
-11.649714 5.5281525 4.8653693 255
-11.920012 5.5216484 4.9385381 255
-12.459209 5.5068359 5.0849829 255
-12.908147 5.4884758 5.2068071 255
-13.261304 5.5038033 5.3066297 138
-11.623523 5.4930344 4.595613 7
-12.167073 5.4599342 4.7408643 255
-12.706498 5.4375 4.8870049 255
-12.974024 5.4339142 4.9607005 255
-13.323841 5.4671936 5.0617681 131
-11.47049 5.4996986 4.7337751 255
-11.740892 5.4899445 4.8093014 255
-12.188517 5.4839554 4.9359856 255
-12.458841 5.4666481 5.0111618 255
-12.816368 5.4553337 5.1122942 255
-11.289314 5.4555511 4.7221704 41
-11.731069 5.4866219 4.8506942 255
-12.089691 5.4802513 4.951642 255
-12.360237 5.4636612 5.0266147 255
-12.537599 5.467514 5.0776739 255
-12.984039 5.4548149 5.2039146 255
-13.247654 5.4691391 5.2813735 255
-11.27451 5.4847832 5.0880699 128.5
-11.626444 5.5200729 5.1910086 255
-11.986135 5.5118637 5.2910233 255
-12.434563 5.501236 5.4161901 255
-11.565581 5.5172539 5.1645794 255
-12.104459 5.5020981 5.3177099 255
-12.461801 5.4961891 5.4202623 255
-11.285561 5.5183563 4.873342 129.5
-11.642015 5.5301094 4.9752288 255
-12.181384 5.5148163 5.1260657 255
-12.539756 5.5048866 5.2267962 255
-12.898322 5.4886246 5.3271866 255
-13.166492 5.4774017 5.4026208 255
-11.34512 5.4484711 4.6930127 9
-11.514444 5.5028305 4.7444601 255
-11.781119 5.5185585 4.8175435 255
-12.142336 5.506176 4.9129276 255
